ply
format ascii 1.0
element face 0
property list uchar int vertex_indices
element vertex 897
property float x
property float y
property float z
property uchar diffuse_red
property uchar diffuse_green
property uchar diffuse_blue
end_header
2.335869e-001 -5.208050e-001 3.009879e+000 129 113 91
-6.351485e-003 -5.285184e-001 2.785830e+000 118 103 79
-2.570341e-002 -5.282152e-001 2.762299e+000 118 103 78
2.296810e-001 -5.179238e-001 2.980911e+000 127 111 86
-1.925177e-002 -5.255124e-001 2.752096e+000 119 103 76
5.773250e-002 -5.160535e-001 2.807063e+000 122 104 79
5.773250e-002 -5.160535e-001 2.807063e+000 122 104 79
1.784463e-001 -5.012813e-001 2.885805e+000 125 109 84
1.378063e-001 -4.829889e-001 2.796386e+000 123 105 81
2.048664e-002 -4.849484e-001 2.690258e+000 118 103 79
2.081566e-001 -4.620546e-001 2.824698e+000 120 106 80
1.863082e-001 -4.619805e-001 2.806426e+000 114 100 74
1.132787e-001 -4.663556e-001 2.740644e+000 114 103 78
2.366568e-001 -4.562005e-001 2.839836e+000 121 105 79
2.219479e-001 -4.564025e-001 2.826194e+000 114 100 71
2.219479e-001 -4.564025e-001 2.826194e+000 114 100 71
1.895312e-001 -4.558046e-001 2.802778e+000 116 100 72
1.780479e-001 -4.570703e-001 2.787371e+000 116 103 76
1.780479e-001 -4.570703e-001 2.787371e+000 116 103 76
3.523624e-002 -4.557034e-001 2.653712e+000 50 39 28
1.293052e-001 -4.505381e-001 2.729994e+000 119 102 79
1.293052e-001 -4.505381e-001 2.729994e+000 119 102 79
1.659190e-001 -4.329175e-001 2.730095e+000 122 104 80
5.367498e-002 -4.293672e-001 2.624842e+000 44 36 25
2.207306e-001 -4.237562e-001 2.764239e+000 120 106 80
2.262376e-001 -4.232291e-001 2.767603e+000 121 107 84
2.262376e-001 -4.232291e-001 2.767603e+000 121 107 84
1.316508e-001 -4.218639e-001 2.689529e+000 119 101 77
1.316508e-001 -4.218639e-001 2.689529e+000 119 101 77
3.185127e-001 -4.137800e-001 2.836566e+000 122 107 84
1.482965e-001 -4.149811e-001 2.686600e+000 51 35 25
3.414523e-001 -4.025873e-001 2.837648e+000 120 105 78
3.414523e-001 -4.025873e-001 2.837648e+000 120 105 78
2.483366e-001 -4.038825e-001 2.759158e+000 114 98 72
2.483366e-001 -4.038825e-001 2.759158e+000 114 98 72
2.394531e-001 -4.042665e-001 2.750343e+000 121 105 79
2.394531e-001 -4.042665e-001 2.750343e+000 121 105 79
1.833462e-001 -4.019811e-001 2.694099e+000 57 45 28
7.205958e-002 -4.028281e-001 2.595951e+000 59 42 30
7.205958e-002 -4.028281e-001 2.595951e+000 59 42 30
2.687178e-001 -7.758172e-001 3.451500e+000 201 215 225
2.709031e-001 -7.589892e-001 3.452130e+000 200 217 227
1.359134e-001 -7.399181e-001 3.323284e+000 192 209 217
1.371562e-001 -7.269784e-001 3.330368e+000 192 206 215
3.080084e-001 -6.165739e-001 3.514282e+000 191 200 207
-9.596638e-002 -6.403321e-001 3.129073e+000 151 163 169
1.413393e-001 -6.120033e-001 3.278586e+000 134 123 103
1.033711e-001 -6.148180e-001 3.241659e+000 132 124 101
-8.253240e-002 -6.246593e-001 3.068880e+000 125 114 96
-3.906033e-002 -6.016712e-001 3.025091e+000 135 123 101
-5.558716e-003 -5.973385e-001 3.018412e+000 135 121 102
-8.808631e-002 -5.949728e-001 2.923810e+000 133 120 102
-6.928353e-002 -5.934945e-001 2.935566e+000 134 119 98
-6.928353e-002 -5.934945e-001 2.935566e+000 134 119 98
8.684527e-003 -5.890578e-001 3.003257e+000 128 115 96
1.541120e-001 -5.765361e-001 3.108581e+000 128 115 96
1.988880e-001 -5.727357e-001 3.146339e+000 128 115 96
-6.475554e-002 -5.865625e-001 2.908269e+000 127 112 93
-7.475455e-002 -5.865800e-001 2.901910e+000 125 112 93
1.030218e-002 -5.758324e-001 2.948564e+000 122 108 89
1.088418e-001 -5.633397e-001 2.999932e+000 119 108 83
7.203856e-002 -5.643853e-001 2.961901e+000 130 115 92
3.128090e-002 -5.668356e-001 2.922671e+000 118 105 86
1.735194e-001 -5.543585e-001 3.048585e+000 130 114 91
-6.085790e-003 -5.584759e-001 2.888490e+000 125 109 90
3.700841e-003 -5.640772e-001 2.874196e+000 124 109 86
5.637381e-002 -5.540222e-001 2.914121e+000 117 106 88
5.637381e-002 -5.540222e-001 2.914121e+000 117 106 88
1.405777e-002 -5.536556e-001 2.877704e+000 128 113 93
8.899720e-002 -5.553403e-001 2.924103e+000 126 110 85
3.360638e-002 -5.343665e-001 2.838355e+000 125 108 88
2.808003e-002 -5.340964e-001 2.834124e+000 115 100 79
-4.310759e-002 -5.354504e-001 2.777033e+000 49 38 20
1.728194e-001 -5.292620e-001 2.955249e+000 58 43 24
1.728194e-001 -5.292620e-001 2.955249e+000 58 43 24
-1.107278e-002 -5.335566e-001 2.798918e+000 127 111 89
2.037643e-001 -5.245603e-001 2.980024e+000 123 111 89
1.622760e-001 -5.144036e-001 2.903953e+000 122 107 86
1.111893e-001 -4.916778e-001 2.802099e+000 127 107 80
1.867699e-001 -4.791213e-001 2.843158e+000 116 100 76
2.766983e-001 -4.696610e-001 2.911774e+000 122 106 83
1.876125e-001 -4.728309e-001 2.831402e+000 122 107 88
2.781534e-001 -4.567771e-001 2.890657e+000 47 36 19
2.781534e-001 -4.567771e-001 2.890657e+000 47 36 19
1.210329e-001 -4.616713e-001 2.741843e+000 45 32 15
2.699301e-001 -4.544012e-001 2.870269e+000 123 108 81
2.579823e-001 -4.554203e-001 2.856600e+000 127 112 85
1.192692e-001 -4.579441e-001 2.735130e+000 121 106 82
1.110056e-001 -4.585644e-001 2.725989e+000 121 105 80
1.110056e-001 -4.585644e-001 2.725989e+000 121 105 80
1.204202e-001 -4.512076e-001 2.721219e+000 117 100 78
1.204202e-001 -4.512076e-001 2.721219e+000 117 100 78
1.567765e-001 -4.362888e-001 2.740946e+000 120 101 77
7.303965e-002 -4.420663e-001 2.656547e+000 117 101 82
7.303965e-002 -4.420663e-001 2.656547e+000 117 101 82
1.754162e-001 -4.318251e-001 2.736939e+000 122 107 83
2.878741e-001 -4.206969e-001 2.828980e+000 119 103 84
2.414507e-001 -4.230201e-001 2.784666e+000 112 98 77
2.695366e-001 -4.184803e-001 2.802323e+000 117 102 81
2.695366e-001 -4.184803e-001 2.802323e+000 117 102 81
1.933435e-001 -4.199823e-001 2.729550e+000 118 103 81
1.933435e-001 -4.199823e-001 2.729550e+000 118 103 81
7.218050e-002 -4.191053e-001 2.629698e+000 122 110 88
2.748608e-001 -4.117775e-001 2.796420e+000 115 100 80
3.229041e-001 -4.083635e-001 2.835999e+000 116 104 82
2.405463e-001 -4.073890e-001 2.758935e+000 59 44 25
2.405463e-001 -4.073890e-001 2.758935e+000 59 44 25
1.549893e-001 -4.108431e-001 2.681167e+000 107 94 76
1.549893e-001 -4.108431e-001 2.681167e+000 107 94 76
2.031852e-001 -4.045798e-001 2.717185e+000 119 101 76
1.947393e-001 -4.039966e-001 2.711177e+000 123 106 87
2.756948e-001 -7.556792e-001 3.456986e+000 199 213 222
2.228252e-001 -7.404163e-001 3.412009e+000 188 203 212
-6.612989e-002 -6.739884e-001 3.145302e+000 175 190 197
9.102915e-002 -6.179731e-001 3.268299e+000 71 63 43
9.392503e-002 -6.200747e-001 3.256586e+000 138 127 110
9.392503e-002 -6.200747e-001 3.256586e+000 138 127 110
9.012979e-002 -6.154580e-001 3.228355e+000 135 126 104
9.012979e-002 -6.154580e-001 3.228355e+000 135 126 104
1.780205e-001 -6.071181e-001 3.310587e+000 72 62 52
1.154564e-001 -6.104428e-001 3.248702e+000 65 55 42
-8.563833e-003 -6.208059e-001 3.130168e+000 128 118 103
-8.563833e-003 -6.208059e-001 3.130168e+000 128 118 103
1.415878e-002 -6.173209e-001 3.150412e+000 82 69 51
-2.291584e-002 -6.187646e-001 3.112144e+000 63 51 36
1.523565e-001 -6.070584e-001 3.265530e+000 122 117 101
-3.724954e-002 -6.140849e-001 3.067639e+000 71 58 41
1.969867e-001 -5.783731e-001 3.277434e+000 135 120 100
-3.075019e-002 -6.081735e-001 3.030900e+000 135 119 95
-6.619860e-002 -6.040260e-001 2.969659e+000 130 115 96
-5.382169e-002 -5.920066e-001 2.954438e+000 137 122 103
1.774801e-001 -5.762458e-001 3.140302e+000 119 106 88
2.674592e-001 -5.739890e-001 3.213217e+000 73 61 45
2.258738e-001 -5.745740e-001 3.176943e+000 61 49 33
-3.829725e-003 -5.842143e-001 2.965756e+000 132 117 98
1.271885e-001 -5.766396e-001 3.075546e+000 133 120 100
1.271885e-001 -5.766396e-001 3.075546e+000 133 120 100
2.117324e-001 -5.692681e-001 3.136272e+000 127 115 99
2.835001e-001 -5.640608e-001 3.201249e+000 128 117 99
2.001042e-001 -5.688268e-001 3.125846e+000 117 109 94
1.896691e-001 -5.645796e-001 3.105625e+000 125 111 90
1.567284e-002 -5.672703e-001 2.911914e+000 122 107 88
1.567284e-002 -5.672703e-001 2.911914e+000 122 107 88
-5.381368e-002 -5.657592e-001 2.850785e+000 132 118 97
1.145576e-001 -5.592968e-001 2.991581e+000 122 111 89
2.005908e-002 -5.362987e-001 2.823465e+000 129 114 93
1.163505e-001 -5.286792e-001 2.898667e+000 58 42 24
1.547199e-001 -5.263151e-001 2.926727e+000 59 45 22
2.386141e-001 -5.208704e-001 3.000428e+000 128 113 91
2.095499e-001 -5.199191e-001 2.976128e+000 123 109 86
-3.242908e-004 -5.306645e-001 2.790141e+000 50 33 13
1.008602e-001 -5.252409e-001 2.871233e+000 117 105 81
-1.907050e-002 -5.244327e-001 2.764697e+000 56 41 27
1.311961e-001 -5.098342e-001 2.858392e+000 42 29 7
7.855274e-003 -5.082805e-001 2.739654e+000 55 42 25
7.855274e-003 -5.082805e-001 2.739654e+000 55 42 25
2.530430e-003 -5.080731e-001 2.734280e+000 47 34 18
7.891990e-002 -4.935458e-001 2.768247e+000 40 29 17
7.891990e-002 -4.935458e-001 2.768247e+000 40 29 17
8.734241e-002 -4.931059e-001 2.775087e+000 35 27 17
8.535791e-002 -4.897434e-001 2.758786e+000 53 41 24
1.821645e-001 -4.836920e-001 2.844139e+000 52 36 21
1.821645e-001 -4.836920e-001 2.844139e+000 52 36 21
1.973407e-001 -4.785561e-001 2.851767e+000 116 101 79
9.595907e-002 -4.829963e-001 2.763046e+000 40 32 16
3.272547e-001 -4.700857e-001 2.965466e+000 65 52 38
3.272547e-001 -4.700857e-001 2.965466e+000 65 52 38
4.958659e-002 -4.782630e-001 2.713186e+000 56 44 28
4.958659e-002 -4.782630e-001 2.713186e+000 56 44 28
2.759844e-001 -4.660641e-001 2.906209e+000 43 35 18
2.759844e-001 -4.660641e-001 2.906209e+000 43 35 18
2.069470e-001 -4.707449e-001 2.842599e+000 120 107 89
2.069470e-001 -4.707449e-001 2.842599e+000 120 107 89
2.365528e-001 -4.659328e-001 2.866400e+000 129 117 95
2.365528e-001 -4.659328e-001 2.866400e+000 129 117 95
1.380762e-001 -4.649612e-001 2.763745e+000 119 106 81
2.755466e-001 -4.577312e-001 2.884631e+000 130 113 98
4.797674e-002 -4.682158e-001 2.680809e+000 48 34 15
4.133109e-002 -4.669895e-001 2.675433e+000 53 40 23
5.442443e-002 -4.630007e-001 2.683072e+000 110 97 75
5.442443e-002 -4.630007e-001 2.683072e+000 110 97 75
1.825952e-001 -4.455468e-001 2.775720e+000 37 26 9
1.825952e-001 -4.455468e-001 2.775720e+000 37 26 9
1.747011e-001 -4.477568e-001 2.764730e+000 37 29 10
5.468919e-002 -4.462595e-001 2.655433e+000 49 36 19
7.829210e-002 -4.379784e-001 2.658110e+000 54 42 24
6.336107e-002 -4.363223e-001 2.641063e+000 50 39 18
6.522246e-002 -4.313136e-001 2.640649e+000 110 99 78
6.522246e-002 -4.313136e-001 2.640649e+000 110 99 78
2.493362e-001 -4.241210e-001 2.790751e+000 121 109 86
1.995269e-001 -4.248658e-001 2.748015e+000 120 105 84
2.613240e-001 -4.196972e-001 2.795544e+000 118 106 83
1.383903e-001 -4.240225e-001 2.691712e+000 51 37 24
3.378403e-001 -4.180102e-001 2.857349e+000 49 37 21
2.138577e-001 -4.215320e-001 2.750983e+000 51 39 21
6.650192e-002 -4.231441e-001 2.630815e+000 50 36 21
2.871100e-001 -4.155461e-001 2.810410e+000 54 40 28
2.871100e-001 -4.155461e-001 2.810410e+000 54 40 28
9.225656e-002 -4.175755e-001 2.637385e+000 62 46 26
2.809641e-001 -4.087609e-001 2.796104e+000 55 39 22
2.686644e-001 -4.114677e-001 2.782319e+000 50 37 16
1.452572e-001 -4.130834e-001 2.680654e+000 109 98 78
8.340840e-002 -4.161255e-001 2.626585e+000 116 100 77
1.948222e-001 -4.102266e-001 2.713887e+000 62 45 26
1.644071e-001 -4.070862e-001 2.688188e+000 49 35 18
1.644071e-001 -4.070862e-001 2.688188e+000 49 35 18
1.531103e-001 -4.047900e-001 2.676984e+000 43 31 12
1.531103e-001 -4.047900e-001 2.676984e+000 43 31 12
-1.257638e-001 2.300561e-001 3.039431e+000 45 42 31
1.173982e-003 -9.412293e-002 2.765951e+000 130 113 93
-3.329624e-002 -2.147845e-001 2.648484e+000 124 108 85
-1.695771e-002 -1.771193e-001 2.686560e+000 121 113 102
-5.525341e-002 -1.510564e-001 2.678626e+000 128 114 88
3.753776e-001 -1.163562e-001 2.983009e+000 94 80 70
3.753776e-001 -1.163562e-001 2.983009e+000 94 80 70
-1.019884e-001 -6.289203e-002 2.735290e+000 128 116 94
-1.148697e-001 2.471950e-001 3.069607e+000 104 101 90
4.042829e-001 -6.462926e-001 3.494896e+000 190 203 210
4.556780e-001 -1.713869e-001 2.982425e+000 99 87 71
4.556780e-001 -1.713869e-001 2.982425e+000 99 87 71
4.412286e-001 -1.402286e-001 3.004451e+000 133 122 104
1.479894e-001 -1.055318e-001 2.848799e+000 56 48 37
3.157190e-001 -1.453806e-002 3.060776e+000 102 90 74
4.363026e-002 2.856279e-002 2.913864e+000 133 117 94
1.580765e-001 -2.434246e-001 2.733206e+000 46 42 33
2.116687e-001 -1.874337e-001 2.802420e+000 48 45 40
-2.420274e-002 -1.489825e-001 2.700337e+000 136 120 94
1.743637e-001 -1.108740e-001 2.853252e+000 45 43 38
1.391820e-002 -6.364801e-002 2.802627e+000 51 47 36
1.013115e-001 2.861084e-002 2.947741e+000 42 40 35
-6.448630e-002 1.003462e-001 2.915846e+000 46 42 34
-2.376442e-002 1.352409e-001 2.982704e+000 128 112 89
-4.874054e-002 1.551581e-001 3.000892e+000 47 44 36
-9.508855e-002 1.890897e-001 3.001056e+000 128 117 96
-3.400602e-001 4.136326e-001 3.138934e+000 128 113 89
4.910335e-001 -2.266103e-001 2.941612e+000 60 50 40
2.203140e-001 -2.050238e-001 2.792504e+000 51 49 44
1.796545e-001 -2.005959e-001 2.768025e+000 48 46 43
9.464303e-002 -1.384795e-001 2.781962e+000 136 124 101
9.997846e-002 -1.082902e-001 2.813101e+000 52 43 37
6.764285e-003 -3.880596e-002 2.824709e+000 50 44 35
6.764285e-003 -3.880596e-002 2.824709e+000 50 44 35
-9.506598e-002 -3.523297e-002 2.767926e+000 54 48 38
1.059861e-001 -2.217583e-002 2.904225e+000 58 51 41
3.996719e-002 -1.024417e-002 2.871187e+000 46 45 41
-2.635281e-002 5.335133e-002 2.897591e+000 130 118 95
-5.343486e-003 8.488023e-002 2.947037e+000 50 42 35
-3.957751e-002 9.862031e-002 2.939203e+000 50 50 42
-3.957751e-002 9.862031e-002 2.939203e+000 50 50 42
2.476911e-001 -4.803159e-001 3.505170e+000 175 185 194
1.206162e-003 -2.319185e-001 2.645012e+000 122 110 94
2.178384e-003 -2.332549e-001 2.645038e+000 122 110 94
1.020822e-001 -2.011012e-001 2.731855e+000 54 53 41
9.915013e-002 -2.041322e-001 2.734476e+000 54 53 41
1.207284e-001 -1.802237e-001 2.756443e+000 52 39 32
1.129453e-001 -1.501207e-001 2.780478e+000 46 41 35
5.992078e-002 -1.516798e-001 2.748291e+000 131 114 97
5.992078e-002 -1.516798e-001 2.748291e+000 131 114 97
1.031441e-002 -4.879031e-002 2.815968e+000 42 41 34
3.664195e-001 -2.814477e-002 3.079390e+000 70 59 42
-3.845068e-002 2.169758e-002 2.858876e+000 49 43 38
-6.032014e-002 6.281575e-002 2.887691e+000 52 45 33
-5.891833e-002 6.483498e-002 2.885519e+000 52 45 33
-5.003455e-002 1.256460e-001 2.962292e+000 132 116 100
-5.003455e-002 1.256460e-001 2.962292e+000 132 116 100
-7.968075e-002 1.296063e-001 2.948442e+000 50 42 30
-5.993571e-002 1.431006e-001 2.968122e+000 51 48 35
-5.993571e-002 1.431006e-001 2.968122e+000 51 48 35
-4.157245e-002 1.470617e-001 2.994362e+000 49 42 32
-1.597076e-001 2.330731e-001 3.020751e+000 50 43 34
2.671024e-001 -5.260319e-001 3.491391e+000 179 189 199
3.972101e-001 -1.589325e-001 2.952704e+000 129 116 99
4.482957e-001 -1.543484e-001 3.002262e+000 133 120 103
-1.049765e-003 -1.615264e-001 2.700710e+000 45 37 22
-3.609554e-002 -1.654088e-001 2.681440e+000 52 45 31
6.899958e-002 -1.279892e-001 2.767120e+000 51 45 38
8.525078e-002 -1.255612e-001 2.785378e+000 48 46 36
6.102506e-002 -1.197580e-001 2.776903e+000 122 112 97
6.780961e-002 -1.173217e-001 2.783874e+000 50 43 33
5.122524e-002 -1.185792e-001 2.773295e+000 47 42 33
5.932117e-002 -1.029892e-001 2.791071e+000 50 38 28
7.465878e-002 -8.706204e-002 2.817288e+000 49 40 33
7.482569e-002 -8.836588e-002 2.817994e+000 49 40 33
-6.099906e-002 -8.825131e-002 2.732203e+000 124 114 97
3.896977e-001 -6.444621e-002 3.057807e+000 136 124 109
3.896977e-001 -6.444621e-002 3.057807e+000 136 124 109
-7.901597e-002 -7.547998e-002 2.739737e+000 42 34 21
3.041357e-002 -6.123329e-002 2.807761e+000 52 47 44
2.339297e-002 -5.192644e-002 2.817291e+000 120 108 89
2.125920e-002 -4.577545e-002 2.819577e+000 122 109 94
1.964063e-002 -4.712322e-002 2.822436e+000 122 109 94
-8.592776e-002 -5.393728e-002 2.751114e+000 46 44 32
3.704801e-002 -4.590424e-002 2.835963e+000 139 133 116
3.704801e-002 -4.590424e-002 2.835963e+000 139 133 116
1.166407e-002 -1.673382e-002 2.845678e+000 52 46 37
-3.346421e-003 -1.302117e-002 2.846157e+000 127 113 94
-9.157597e-002 -9.387950e-003 2.795473e+000 128 116 100
-8.979388e-002 -7.203456e-003 2.792849e+000 128 116 100
-1.130817e-002 5.061731e-003 2.857117e+000 130 119 99
1.425176e-002 1.675995e-002 2.879402e+000 121 110 99
1.425176e-002 1.675995e-002 2.879402e+000 121 110 99
-1.183585e-002 5.913325e-002 2.904416e+000 50 39 26
-4.589870e-002 7.511753e-002 2.898756e+000 51 43 32
-4.022497e-002 8.286968e-002 2.918688e+000 45 42 34
-2.892340e-002 9.874122e-002 2.947397e+000 50 46 36
-9.989104e-002 2.221860e-001 3.043822e+000 47 38 31
-1.436037e-001 2.365161e-001 3.026560e+000 48 42 33
-1.165338e-001 2.542808e-001 3.073969e+000 52 46 32
-2.351042e-001 3.542091e-001 3.125541e+000 51 40 33
-9.655782e-003 -2.486730e-001 2.640154e+000 46 34 21
1.051759e-002 -1.870891e-001 2.679769e+000 51 43 29
1.051759e-002 -1.870891e-001 2.679769e+000 51 43 29
6.713538e-003 -1.769135e-001 2.692799e+000 48 37 22
9.029970e-002 -1.099748e-001 2.803616e+000 121 115 101
4.140457e-001 -8.648340e-002 3.040645e+000 135 120 102
4.140457e-001 -8.648340e-002 3.040645e+000 135 120 102
3.997679e-002 -9.768816e-002 2.782762e+000 136 124 107
-4.378871e-002 -6.999324e-002 2.758466e+000 42 30 15
-4.378871e-002 -6.999324e-002 2.758466e+000 42 30 15
-9.296986e-002 -4.965158e-002 2.744115e+000 115 103 84
-6.271720e-002 -3.123066e-002 2.784027e+000 62 49 33
-6.187713e-002 -2.917503e-002 2.780675e+000 62 49 33
-7.436652e-002 -1.301932e-002 2.795712e+000 40 25 6
-9.528623e-002 4.917824e-004 2.797115e+000 37 28 14
-9.528623e-002 4.917824e-004 2.797115e+000 37 28 14
2.826354e-001 4.416830e-002 3.084665e+000 71 58 42
-3.509868e-002 1.108410e-001 2.948220e+000 128 118 105
8.363088e-002 1.255856e-001 3.035259e+000 63 51 37
8.363088e-002 1.255856e-001 3.035259e+000 63 51 37
9.818572e-002 1.265562e-001 3.069540e+000 56 44 31
-9.025918e-002 1.883563e-001 3.017695e+000 133 121 103
-1.340444e-001 2.110592e-001 3.018634e+000 34 28 20
-1.018842e-001 2.355012e-001 3.057179e+000 46 40 32
-1.322508e-001 2.584477e-001 3.067884e+000 55 47 29
-1.322508e-001 2.584477e-001 3.067884e+000 55 47 29
-1.484327e-001 2.544255e-001 3.059520e+000 52 40 29
-7.361949e-002 3.738287e-001 3.280409e+000 53 44 36
-8.449685e-002 4.959960e-001 3.453685e+000 132 124 109
-6.244006e-002 4.994813e-001 3.483554e+000 48 39 24
-4.415670e-002 9.027258e-002 2.935919e+000 55 52 47
1.185842e-001 -1.245363e-001 2.810805e+000 138 122 106
2.020333e-001 -2.316381e-001 2.745609e+000 54 54 49
2.826133e-001 3.508484e-002 3.099022e+000 95 85 74
2.829062e-001 3.589479e-002 3.098528e+000 95 85 74
4.355945e-001 -1.428545e-001 3.007888e+000 134 125 110
-3.113409e-001 3.771484e-001 3.086420e+000 59 56 46
7.688826e-003 -1.128910e-002 2.855597e+000 58 54 51
7.688826e-003 -1.128910e-002 2.855597e+000 58 54 51
3.688049e-002 -6.139891e-002 2.817939e+000 60 63 57
-4.201120e-002 9.724597e-002 2.940647e+000 54 54 48
-2.460347e-002 5.696054e-002 2.916850e+000 55 56 51
1.068825e-001 -1.741891e-001 2.748950e+000 139 125 109
9.723229e-002 -4.480708e-002 2.876066e+000 54 53 53
7.891279e-002 1.982416e-002 2.931657e+000 108 99 90
-6.521788e-002 -9.698927e-002 2.723281e+000 57 55 51
-1.663676e-001 2.174288e-001 3.012310e+000 141 131 114
-3.397372e-002 3.727513e-002 2.883335e+000 57 56 52
-4.428377e-002 1.275550e-001 2.977630e+000 53 53 48
-1.014762e-001 2.317570e-001 3.068243e+000 55 55 49
-2.541925e-002 1.118581e-001 2.973254e+000 62 62 54
4.400070e-002 2.477839e-003 2.888396e+000 144 132 116
-6.189854e-002 -9.000253e-002 2.733138e+000 128 118 105
-3.747539e-001 4.750176e-001 3.176728e+000 133 124 105
7.937024e-003 -6.432334e-002 2.798448e+000 57 53 48
7.937024e-003 -6.432334e-002 2.798448e+000 57 53 48
2.567243e-002 -7.747859e-002 2.796704e+000 53 52 47
4.472948e-002 -1.044799e-001 2.780103e+000 62 53 44
-3.959482e-003 5.507324e-003 2.866537e+000 56 53 47
-3.648144e-003 5.647341e-003 2.866096e+000 56 53 47
3.018664e-002 -5.049070e-002 2.826636e+000 52 51 49
4.162278e-002 -5.121766e-002 2.829620e+000 136 129 116
-2.177318e-002 7.042507e-002 2.928865e+000 142 131 117
4.819542e-002 -4.780956e-002 2.839268e+000 56 51 48
-3.143640e-002 9.537476e-002 2.949916e+000 59 54 49
-3.169745e-002 1.071202e-001 2.956404e+000 136 130 111
2.449242e-002 3.178838e-002 2.909560e+000 59 56 47
-4.683383e-002 4.940021e-001 3.484799e+000 69 65 54
3.609141e-001 -1.177243e-001 2.985766e+000 74 67 54
-8.580263e-002 2.003967e-002 2.811154e+000 66 60 47
-1.656010e-001 2.418030e-001 3.026996e+000 55 53 49
3.096551e-002 -9.191225e-002 2.786854e+000 63 54 47
3.096551e-002 -9.191225e-002 2.786854e+000 63 54 47
-4.506218e-002 4.811146e-002 2.894917e+000 63 55 47
4.481739e-002 -1.041406e-001 2.780140e+000 61 52 43
-8.073083e-002 1.454464e-001 2.978109e+000 137 130 113
-8.073083e-002 1.454464e-001 2.978109e+000 137 130 113
-2.868315e-002 7.129732e-002 2.918169e+000 62 55 45
8.898871e-002 -1.469771e-001 2.762405e+000 128 122 109
-8.672238e-002 1.930966e-001 3.024961e+000 143 131 114
-1.103181e-001 2.428608e-001 3.064679e+000 125 122 107
-1.113573e-001 2.406266e-001 3.066337e+000 125 122 107
1.692380e-003 5.826015e-002 2.922589e+000 134 123 103
-3.644749e-002 1.204343e-001 2.976141e+000 133 124 113
1.189725e-001 -1.678055e-001 2.761878e+000 136 130 118
-1.370835e-001 3.528764e-001 3.200302e+000 144 133 111
2.822323e-001 4.960400e-003 3.085862e+000 144 135 118
-7.218551e-002 -5.385186e-002 2.762196e+000 57 53 46
-5.376341e-002 -9.130794e-002 2.736394e+000 118 114 103
-2.990684e-001 3.659740e-001 3.085919e+000 59 49 37
-7.082366e-002 8.636227e-002 2.915975e+000 123 117 107
-7.082366e-002 8.636227e-002 2.915975e+000 123 117 107
-1.313792e-001 2.175291e-001 3.024575e+000 123 119 107
-1.313792e-001 2.175291e-001 3.024575e+000 123 119 107
5.588792e-002 -9.493491e-002 2.794997e+000 134 126 113
-1.238096e-001 2.370005e-001 3.046703e+000 53 48 43
-1.434757e-002 4.760962e-002 2.904947e+000 131 124 108
9.862661e-002 -6.230927e-002 2.856411e+000 128 123 107
1.514670e-001 -1.225715e-001 2.830712e+000 58 56 47
1.514670e-001 -1.225715e-001 2.830712e+000 58 56 47
1.648188e-001 -1.203792e-001 2.835697e+000 60 56 47
1.965501e-001 -1.832358e-001 2.798285e+000 58 55 46
-3.742137e-002 3.593541e-001 3.280250e+000 57 47 38
-3.742137e-002 3.593541e-001 3.280250e+000 57 47 38
-1.313624e-002 4.965754e-001 3.513396e+000 73 63 51
-1.313624e-002 4.965754e-001 3.513396e+000 73 63 51
2.196214e-001 -2.249934e-001 2.761308e+000 43 44 38
2.196214e-001 -2.249934e-001 2.761308e+000 43 44 38
-5.867466e-002 4.624041e-001 3.497915e+000 130 124 113
1.151441e-001 -2.113802e-001 2.713654e+000 48 47 42
1.588550e-001 -1.877835e-001 2.763790e+000 135 120 100
8.681383e-002 6.165256e-002 2.968224e+000 48 46 43
-1.284105e-001 1.972577e-001 3.003977e+000 46 41 35
-4.917962e-002 1.259472e-001 2.961742e+000 125 114 97
-4.917962e-002 1.259472e-001 2.961742e+000 125 114 97
-3.157331e-001 4.066365e-001 3.140167e+000 125 115 95
-3.157331e-001 4.066365e-001 3.140167e+000 125 115 95
3.644288e-002 -7.710091e-002 2.800796e+000 125 114 101
3.644288e-002 -7.710091e-002 2.800796e+000 125 114 101
6.233733e-002 -1.185777e-001 2.776066e+000 124 117 99
-4.481499e-002 9.110632e-002 2.925611e+000 118 107 92
-4.481499e-002 9.110632e-002 2.925611e+000 118 107 92
-5.343880e-002 1.080912e-001 2.937669e+000 129 122 106
5.039993e-002 -7.178817e-002 2.818379e+000 125 117 104
-3.661986e-002 1.087176e-001 2.949785e+000 122 112 96
9.269949e-002 1.094066e-001 3.050002e+000 45 37 24
9.269949e-002 1.094066e-001 3.050002e+000 45 37 24
3.896414e-001 -1.633395e-001 2.959390e+000 135 126 109
-6.278752e-002 -3.063891e-002 2.782175e+000 60 48 34
-5.058688e-002 9.222831e-002 2.918512e+000 115 102 87
-5.058688e-002 9.222831e-002 2.918512e+000 115 102 87
1.937931e-001 -1.876885e-001 2.803603e+000 48 45 35
1.937931e-001 -1.876885e-001 2.803603e+000 48 45 35
2.070233e-002 1.598126e-001 3.064760e+000 55 42 33
-3.660909e-002 3.528219e-001 3.271601e+000 62 49 35
-2.521743e-002 3.814515e-001 3.320285e+000 55 43 27
-2.521743e-002 3.814515e-001 3.320285e+000 55 43 27
-4.980617e-003 3.763862e-001 3.356518e+000 60 49 40
1.346565e-002 3.734931e-001 3.337098e+000 53 41 29
9.106057e-003 3.728281e-001 3.341773e+000 53 41 29
-5.775941e-002 4.892466e-001 3.485055e+000 122 114 101
-5.775941e-002 4.892466e-001 3.485055e+000 122 114 101
3.080943e-002 4.590495e-001 3.530551e+000 51 42 27
-3.248431e-001 4.412682e-001 3.163849e+000 131 118 99
-7.082226e-002 3.984248e-001 3.301722e+000 49 39 28
3.599427e-001 -5.212208e-004 3.098213e+000 135 123 107
-4.254798e-002 9.220607e-002 2.934805e+000 47 43 32
2.468718e-002 9.871279e-002 2.985016e+000 130 112 90
-1.281376e-001 2.259170e-001 3.042977e+000 45 42 31
7.072611e-002 -1.279530e-001 2.773192e+000 44 41 32
1.349472e-001 -7.748502e-002 2.872014e+000 46 46 38
3.282652e-002 -6.246645e-002 2.817934e+000 47 47 41
-3.915713e-002 -3.423746e-002 2.816894e+000 130 114 89
2.385005e-002 -2.346184e-001 2.642870e+000 127 116 103
-4.696581e-002 -9.683779e-002 2.735928e+000 50 48 36
2.711707e-002 8.015066e-002 2.959581e+000 132 115 95
-4.354418e-002 1.804962e-001 3.032027e+000 131 115 93
3.387155e-002 3.881877e-001 3.368480e+000 123 116 100
-9.479232e-002 1.598291e-001 2.977887e+000 45 46 38
-4.734637e-002 4.837482e-001 3.476619e+000 120 114 102
-4.738329e-002 4.899673e-001 3.475858e+000 120 114 102
-8.531231e-002 2.115101e-001 3.037077e+000 64 61 53
-1.151796e-001 2.469418e-001 3.069778e+000 104 101 90
4.788961e-001 -1.960446e-001 2.957742e+000 96 87 72
4.788961e-001 -1.960446e-001 2.957742e+000 96 87 72
1.418440e-001 -5.885405e-002 2.890158e+000 44 43 38
3.311781e-001 -4.714335e-002 3.038834e+000 111 99 85
1.103616e-001 -4.084454e-002 2.896173e+000 65 57 42
1.103616e-001 -4.084454e-002 2.896173e+000 65 57 42
3.722190e-001 -3.425054e-002 3.086570e+000 104 94 81
3.710341e-001 -3.453658e-002 3.087166e+000 104 94 81
3.137948e-001 -1.788731e-002 3.060564e+000 102 90 74
3.533029e-001 -5.808170e-003 3.105414e+000 148 136 120
3.533029e-001 -5.808170e-003 3.105414e+000 148 136 120
7.414950e-002 2.418453e-003 2.909746e+000 41 39 36
-1.084161e-001 4.255208e-004 2.790449e+000 68 65 56
-1.699944e-001 1.241025e-002 2.780577e+000 3 2 0
-1.699944e-001 1.241025e-002 2.780577e+000 3 2 0
1.389490e-001 -1.233777e-001 2.821923e+000 47 46 40
9.730938e-002 -1.225649e-001 2.794944e+000 47 41 39
5.687424e-002 -6.157425e-002 2.831875e+000 46 47 42
-6.782004e-002 -6.830908e-002 2.753012e+000 131 115 97
2.791045e-002 -2.255035e-002 2.853111e+000 126 111 89
2.806472e-002 -2.207627e-002 2.852577e+000 126 111 89
2.675438e-002 1.355335e-002 2.892951e+000 53 46 40
-2.583038e-002 2.371696e-002 2.865049e+000 46 46 42
-4.792602e-002 6.350387e-002 2.894185e+000 41 40 35
-6.381486e-002 1.270925e-001 2.957962e+000 132 115 95
-9.836186e-002 1.855116e-001 3.003073e+000 128 117 96
-6.626152e-002 3.578443e-001 3.260384e+000 133 115 92
-3.132227e-001 3.834299e-001 3.108838e+000 126 114 92
-3.898994e-001 4.843906e-001 3.201124e+000 129 114 91
4.358240e-001 -2.326166e-001 2.910296e+000 55 50 42
4.358240e-001 -2.326166e-001 2.910296e+000 55 50 42
3.489195e-002 -2.446262e-001 2.646358e+000 52 47 38
1.056237e-001 -2.269865e-001 2.702359e+000 127 113 96
1.056237e-001 -2.269865e-001 2.702359e+000 127 113 96
4.745634e-001 -2.235488e-001 2.973278e+000 133 118 96
4.230979e-001 -2.183503e-001 2.923484e+000 133 121 99
1.458380e-001 -2.015140e-001 2.747811e+000 44 43 37
8.293486e-002 -1.803850e-001 2.733509e+000 128 114 95
1.479750e-001 -1.413465e-001 2.808565e+000 49 45 40
7.636284e-002 -1.282375e-001 2.778196e+000 44 41 38
3.928279e-002 -5.999567e-002 2.812782e+000 48 47 42
4.102175e-002 -5.945665e-002 2.810469e+000 48 47 42
5.598563e-002 -3.270744e-002 2.864531e+000 50 44 37
5.860659e-002 2.408265e-002 2.925326e+000 48 43 37
-7.460719e-004 5.429904e-002 2.916652e+000 126 114 89
-2.768733e-002 5.301710e-002 2.898071e+000 130 118 95
-5.176607e-002 1.122550e-001 2.953222e+000 44 41 34
-5.696328e-002 1.478097e-001 2.984461e+000 127 111 92
-5.696328e-002 1.478097e-001 2.984461e+000 127 111 92
-1.275583e-001 2.272834e-001 3.036066e+000 50 48 41
-6.049579e-002 4.809749e-001 3.455057e+000 130 116 96
1.280606e-001 -2.433895e-001 2.695904e+000 51 46 33
1.307275e-001 -2.411900e-001 2.692783e+000 51 46 33
1.880721e-003 -2.513642e-001 2.629912e+000 52 46 35
-1.220578e-002 -2.579708e-001 2.636069e+000 52 46 35
1.177315e-002 -2.377362e-001 2.631705e+000 127 115 101
9.003616e-003 -2.387917e-001 2.635088e+000 127 115 101
9.541545e-003 -2.236740e-001 2.650719e+000 49 45 34
6.370629e-003 -2.124931e-001 2.657771e+000 129 116 96
9.367656e-002 -1.727838e-001 2.753380e+000 124 115 100
8.346042e-002 -1.668743e-001 2.743030e+000 47 44 35
1.257633e-001 -1.635524e-001 2.770210e+000 49 43 37
4.234663e-002 -1.313351e-001 2.754133e+000 48 44 33
4.716865e-002 -8.738403e-002 2.792754e+000 49 46 44
-4.543665e-002 -8.667518e-002 2.744070e+000 129 113 92
-7.777763e-002 -6.268330e-002 2.744741e+000 124 111 94
5.942191e-002 -4.981725e-002 2.843602e+000 129 116 97
5.942191e-002 -4.981725e-002 2.843602e+000 129 116 97
-6.482123e-002 -5.384906e-002 2.766843e+000 49 44 40
-7.565980e-002 -5.122440e-002 2.753877e+000 50 44 36
5.204697e-002 -3.895483e-002 2.852878e+000 126 114 98
5.204697e-002 -3.895483e-002 2.852878e+000 126 114 98
-1.055595e-002 -1.387376e-002 2.836163e+000 49 43 31
2.357854e-002 -1.009745e-002 2.863219e+000 44 40 31
2.954263e-001 -5.352168e-003 3.083067e+000 133 118 97
2.716072e-001 -1.361073e-002 3.115784e+000 133 118 97
-2.190867e-002 1.802231e-003 2.850371e+000 44 40 36
3.784122e-003 1.167309e-002 2.878635e+000 126 115 99
-3.839758e-002 2.183922e-002 2.858688e+000 49 43 38
3.148951e-001 4.461485e-002 3.149838e+000 135 120 100
3.177137e-001 4.405401e-002 3.148389e+000 135 120 100
-7.285093e-002 1.123253e-001 2.935726e+000 51 45 35
8.658973e-002 1.224107e-001 3.058547e+000 118 105 87
8.658973e-002 1.224107e-001 3.058547e+000 118 105 87
7.002028e-002 1.304727e-001 3.056480e+000 134 119 98
7.002028e-002 1.304727e-001 3.056480e+000 134 119 98
-7.963771e-002 1.302523e-001 2.947881e+000 50 42 30
-1.136489e-001 1.566008e-001 2.958762e+000 46 39 29
-1.136489e-001 1.566008e-001 2.958762e+000 46 39 29
-1.159790e-001 1.821666e-001 2.986382e+000 47 42 34
-1.159790e-001 1.821666e-001 2.986382e+000 47 42 34
-7.645466e-002 1.851423e-001 3.016534e+000 51 47 38
-1.169144e-001 1.903202e-001 3.001356e+000 124 106 86
-1.149549e-001 1.912909e-001 2.998568e+000 124 106 86
-1.374130e-001 2.021982e-001 2.993405e+000 48 42 34
-1.388733e-001 1.996022e-001 2.995393e+000 48 42 34
-7.685177e-002 2.039830e-001 3.039290e+000 49 43 31
-7.685177e-002 2.039830e-001 3.039290e+000 49 43 31
-1.139970e-001 2.270068e-001 3.043622e+000 113 108 96
-1.082181e-001 2.522371e-001 3.079088e+000 54 47 34
-1.082181e-001 2.522371e-001 3.079088e+000 54 47 34
-6.513888e-002 3.405331e-001 3.238175e+000 47 44 34
-4.071286e-002 3.454782e-001 3.260443e+000 55 45 35
-4.110673e-001 4.876089e-001 3.223546e+000 50 41 29
-1.845999e-001 5.167726e-001 3.402880e+000 55 45 32
-5.041518e-002 -2.986408e-001 2.730556e+000 123 110 95
2.957372e-002 -2.170046e-001 2.656380e+000 46 40 30
1.933132e-002 -2.052110e-001 2.672585e+000 48 42 29
1.139295e-002 -1.963931e-001 2.674341e+000 131 113 96
8.424627e-002 -1.403675e-001 2.769331e+000 53 43 35
7.150851e-002 -1.398254e-001 2.767793e+000 120 113 97
7.150851e-002 -1.398254e-001 2.767793e+000 120 113 97
-3.527265e-002 -1.307335e-001 2.702878e+000 45 38 32
3.665444e-002 -1.159806e-001 2.763051e+000 56 49 39
-5.812044e-002 -1.158672e-001 2.712311e+000 53 44 33
1.074685e-002 -6.219834e-002 2.792045e+000 52 43 43
2.340685e-002 -5.212544e-002 2.816820e+000 120 108 89
4.649936e-002 -4.758009e-002 2.839728e+000 47 44 39
4.320669e-002 -2.850211e-002 2.861622e+000 50 44 37
1.076017e-002 -1.777591e-002 2.846445e+000 52 46 37
2.521132e-002 -1.702209e-003 2.872376e+000 120 110 98
2.495624e-002 -1.434744e-003 2.872430e+000 120 110 98
-1.168448e-002 5.143745e-003 2.857021e+000 130 119 99
-6.819979e-003 6.585373e-002 2.927204e+000 44 36 28
-3.460703e-002 6.392127e-002 2.905036e+000 52 47 38
-4.075215e-002 7.246959e-002 2.911307e+000 127 114 98
-4.075215e-002 7.246959e-002 2.911307e+000 127 114 98
-1.641761e-002 8.298299e-002 2.937013e+000 47 43 36
-4.105545e-002 8.248143e-002 2.919032e+000 45 42 34
-3.562551e-002 9.258435e-002 2.932648e+000 45 38 28
-3.562551e-002 9.258435e-002 2.932648e+000 45 38 28
-5.266591e-002 9.810008e-002 2.930810e+000 52 48 37
-5.266591e-002 9.810008e-002 2.930810e+000 52 48 37
-3.075171e-002 1.074136e-001 2.956523e+000 131 119 105
-2.952613e-002 1.088890e-001 2.955791e+000 131 119 105
-7.532753e-002 1.665317e-001 2.996967e+000 134 118 99
-7.531308e-002 1.665564e-001 2.996909e+000 134 118 99
-1.442760e-001 2.094615e-001 3.000529e+000 46 37 28
-8.297275e-002 3.554451e-001 3.244108e+000 52 39 30
-2.345518e-001 3.540467e-001 3.125009e+000 51 40 33
7.728122e-003 3.826207e-001 3.356572e+000 55 47 35
-1.068563e-002 3.832399e-001 3.342444e+000 52 44 33
-9.431615e-002 4.916646e-001 3.443621e+000 54 45 33
-8.248043e-002 4.927224e-001 3.459318e+000 52 45 35
-7.688045e-002 4.927879e-001 3.459652e+000 52 45 35
-6.482523e-003 -2.442680e-001 2.636765e+000 46 34 21
4.630475e-002 -1.207352e-001 2.763315e+000 129 120 110
7.759884e-002 -1.174426e-001 2.788779e+000 112 109 93
7.765350e-002 -1.176598e-001 2.788855e+000 112 109 93
9.062698e-002 -1.098161e-001 2.803470e+000 121 115 101
-4.983171e-002 -6.239097e-002 2.762561e+000 131 115 99
-4.983171e-002 -6.239097e-002 2.762561e+000 131 115 99
2.632449e-001 1.581536e-003 3.114526e+000 135 119 103
-1.554529e-002 1.413887e-002 2.875741e+000 116 109 90
2.964279e-001 2.310752e-002 3.089402e+000 137 124 105
2.944691e-001 2.151939e-002 3.092492e+000 137 124 105
-6.141416e-002 1.058783e-001 2.934784e+000 127 118 104
-6.141416e-002 1.058783e-001 2.934784e+000 127 118 104
-1.256250e-001 1.929091e-001 2.990309e+000 131 122 102
-1.083812e-001 1.969647e-001 3.008581e+000 46 38 27
-1.083037e-001 1.983327e-001 3.007448e+000 46 38 27
-8.379984e-002 2.122475e-001 3.045803e+000 45 41 33
-8.553891e-002 2.229791e-001 3.054120e+000 58 48 32
-1.483430e-001 2.547968e-001 3.059343e+000 52 40 29
-4.672972e-002 3.729200e-001 3.294588e+000 127 118 103
-4.715877e-002 3.729189e-001 3.294765e+000 127 118 103
-6.803807e-002 3.783165e-001 3.286209e+000 54 47 31
1.954614e-003 3.786488e-001 3.346716e+000 127 119 105
-5.707332e-002 4.818415e-001 3.497635e+000 49 41 31
-3.600884e-001 5.098487e-001 3.280140e+000 125 118 97
1.083335e-001 -2.180542e-001 2.711386e+000 76 74 67
1.083335e-001 -2.180542e-001 2.711386e+000 76 74 67
-6.489291e-002 2.263455e-001 3.082528e+000 143 130 113
-1.030496e-001 1.269130e-001 2.934330e+000 142 129 112
6.334770e-002 3.983369e-001 3.414220e+000 145 132 117
1.680321e-002 4.990060e-001 3.488096e+000 145 132 115
5.391247e-002 -1.076964e-003 2.893542e+000 142 129 112
1.211962e-001 -1.225292e-001 2.808674e+000 138 122 106
2.028767e-001 -2.331162e-001 2.746917e+000 54 54 49
1.150529e-001 -2.128406e-001 2.714467e+000 58 57 52
8.034727e-002 5.243265e-002 2.972677e+000 54 54 52
-2.153820e-002 6.078792e-002 2.914007e+000 55 56 51
-1.284062e-001 2.489179e-001 3.068801e+000 52 52 52
1.054819e-001 -1.764051e-001 2.751386e+000 139 125 109
-1.378757e-003 5.335885e-002 2.917458e+000 137 126 102
9.538459e-002 -1.357742e-001 2.779603e+000 143 131 109
2.354397e-001 -2.491972e-001 2.747558e+000 142 131 113
-4.022101e-001 4.796982e-001 3.204585e+000 132 118 99
-7.258089e-002 -3.834627e-002 2.787840e+000 58 53 45
-3.534843e-001 5.151235e-001 3.271249e+000 60 53 44
-3.510598e-001 5.142115e-001 3.266739e+000 60 53 44
-1.501660e-001 2.162493e-001 3.008945e+000 56 52 45
7.614335e-002 -1.850289e-001 2.720062e+000 60 55 51
1.026699e-001 -2.371858e-001 2.684474e+000 60 56 48
-9.324679e-002 1.317409e-001 2.964587e+000 54 55 50
-3.455364e-002 1.037392e-001 2.956921e+000 136 129 111
-1.766568e-001 5.313757e-001 3.396316e+000 66 59 51
1.215172e-002 -2.507448e-001 2.636837e+000 62 55 47
-8.282438e-002 9.873669e-002 2.926607e+000 136 126 114
-8.282438e-002 9.873669e-002 2.926607e+000 136 126 114
-2.798777e-002 1.415600e-002 2.854518e+000 130 124 109
-6.355654e-002 1.128439e-001 2.944717e+000 53 50 46
-6.092868e-002 1.000244e-001 2.941581e+000 130 123 109
-6.092868e-002 1.000244e-001 2.941581e+000 130 123 109
-9.967827e-002 1.697307e-001 2.999886e+000 137 131 114
-9.967827e-002 1.697307e-001 2.999886e+000 137 131 114
1.199824e-001 -1.779727e-001 2.755109e+000 58 51 47
3.327586e-002 -1.320814e-003 2.881723e+000 58 52 42
1.668838e-002 3.895230e-001 3.352893e+000 65 62 55
1.787986e-002 -2.087582e-001 2.654502e+000 142 132 116
-4.353784e-002 4.919296e-002 2.893863e+000 63 55 47
-1.976670e-002 1.125277e-002 2.863821e+000 57 50 45
-1.100600e-002 1.273292e-002 2.870823e+000 133 131 110
-1.119850e-001 2.324315e-001 3.077129e+000 56 54 41
-4.768990e-002 3.572999e-001 3.249928e+000 66 58 47
-1.549610e-001 5.392177e-001 3.398912e+000 136 128 117
-1.549610e-001 5.392177e-001 3.398912e+000 136 128 117
-6.361925e-002 3.835079e-001 3.283547e+000 64 57 46
-5.439975e-002 5.292143e-001 3.468336e+000 140 132 114
-5.439975e-002 5.292143e-001 3.468336e+000 140 132 114
4.948141e-001 -3.109135e-001 2.909385e+000 120 109 93
-4.038622e-001 5.048973e-001 3.219173e+000 50 43 32
-3.217474e-001 4.256138e-001 3.136282e+000 64 50 40
-3.217474e-001 4.256138e-001 3.136282e+000 64 50 40
-9.584017e-002 1.964602e-001 3.018124e+000 51 44 35
2.081042e-001 -2.480337e-001 2.730171e+000 142 130 113
-8.248274e-002 3.617849e-001 3.252235e+000 66 56 45
-8.248274e-002 3.617849e-001 3.252235e+000 66 56 45
-3.650149e-002 3.407094e-001 3.248307e+000 61 52 43
-5.903869e-002 3.755633e-001 3.279515e+000 135 126 116
-5.119107e-002 3.815296e-001 3.296115e+000 63 54 39
-5.119107e-002 3.815296e-001 3.296115e+000 63 54 39
-3.055697e-002 3.751628e-001 3.313153e+000 56 48 35
6.306000e-002 3.865025e-001 3.370747e+000 67 61 49
4.096340e-001 -2.002693e-001 2.935361e+000 136 127 111
2.300430e-001 -2.305554e-001 2.768698e+000 43 48 41
2.310215e-001 -2.300170e-001 2.768852e+000 43 48 41
-1.990617e-002 -2.402416e-001 2.623400e+000 136 121 98
1.508495e-001 -1.587981e-001 2.772300e+000 134 118 101
1.417121e-001 -1.436753e-001 2.783837e+000 138 121 104
1.544294e-002 -6.171829e-002 2.799940e+000 48 44 39
-1.021729e-001 1.426519e-001 2.950900e+000 131 120 96
3.568792e-002 -6.302981e-002 2.818790e+000 60 60 54
7.708520e-002 1.797277e-002 2.932517e+000 97 91 75
-3.254925e-001 3.601941e-001 3.109498e+000 121 106 86
6.767917e-003 6.244842e-002 2.931126e+000 45 45 38
4.866510e-001 -2.267288e-001 2.941145e+000 62 55 47
-5.020980e-002 -1.274715e-001 2.715375e+000 132 119 102
-3.381281e-001 5.489231e-001 3.243373e+000 49 39 29
-4.009459e-002 1.160385e-001 2.959446e+000 43 44 37
-4.079356e-002 3.643944e-001 3.290605e+000 43 33 25
3.615812e-002 3.761644e-001 3.373138e+000 55 46 38
5.062700e-001 -3.166354e-001 2.902896e+000 160 148 130
2.075996e-002 -3.173060e-001 2.583683e+000 137 125 103
-1.399895e-003 -2.161435e-001 2.642233e+000 50 40 26
-1.336566e-002 -1.731687e-001 2.675803e+000 44 38 33
-7.938173e-002 9.513051e-002 2.936721e+000 47 42 37
2.277712e-003 -1.007684e-001 2.842699e+000 133 121 107
7.069420e-002 -1.235602e-001 2.767801e+000 50 42 40
5.468887e-002 -7.797767e-002 2.812938e+000 130 121 106
5.468887e-002 -7.797767e-002 2.812938e+000 130 121 106
4.095998e-002 -5.205943e-002 2.830196e+000 128 117 102
-2.052907e-002 7.361458e-002 2.924571e+000 131 119 104
-4.496410e-002 1.285611e-001 2.988721e+000 125 115 98
-1.038856e-001 2.447159e-001 3.070000e+000 48 41 29
-4.674570e-001 4.972587e-001 3.158967e+000 16 3 1
-9.553437e-002 1.974597e-001 3.016250e+000 49 39 28
-7.315690e-002 3.961004e-001 3.305886e+000 52 40 27
-3.655671e-002 3.526176e-001 3.270959e+000 62 49 35
-7.926337e-002 4.164564e-002 2.852861e+000 142 127 106
1.321334e+000 8.128465e-002 2.505689e+000 202 219 229
2.209339e-001 1.262818e+000 3.150936e+000 159 174 187
-2.749138e-001 2.234394e-001 2.898779e+000 8 3 0
-1.716239e-001 9.255997e-003 2.778737e+000 28 16 12
-2.946676e-002 -2.118171e-001 2.648010e+000 135 122 102
4.207372e-001 -1.140655e-001 3.022989e+000 77 68 51
7.810716e-002 5.058395e-002 2.973690e+000 51 51 49
1.194478e+000 2.810035e-001 2.667349e+000 202 215 224
1.171029e+000 2.877447e-001 2.656902e+000 179 188 202
4.156108e-002 -5.907946e-002 2.809043e+000 58 55 52
4.911394e-001 -2.286293e-001 2.937102e+000 63 54 49
-7.875175e-002 1.948852e-001 3.027021e+000 127 116 98
-4.303015e-002 1.279339e-001 2.976817e+000 49 46 46
9.894323e-003 5.721974e-002 2.930513e+000 62 52 43
9.894323e-003 5.721974e-002 2.930513e+000 62 52 43
3.128297e-001 3.755164e-002 3.152990e+000 140 127 110
1.064745e+000 3.445325e-001 2.583837e+000 192 204 216
-1.712629e-003 7.443998e-002 2.938842e+000 130 121 96
-1.712629e-003 7.443998e-002 2.938842e+000 130 121 96
-2.173575e-002 6.941044e-002 2.928865e+000 135 127 111
9.946245e-002 -5.970741e-003 2.916760e+000 52 50 42
9.946245e-002 -5.970741e-003 2.916760e+000 52 50 42
4.490537e-002 -7.601645e-002 2.807547e+000 51 46 37
4.624334e-002 -7.522257e-002 2.805074e+000 51 46 37
-2.000183e-002 9.113754e-002 2.944619e+000 137 132 112
-4.330409e-005 3.771810e-001 3.348911e+000 127 119 105
-4.431548e-002 -8.679300e-002 2.743336e+000 133 127 105
-7.263452e-002 -8.830110e-002 2.745698e+000 134 124 108
-6.394539e-002 -3.296018e-002 2.786195e+000 67 59 46
-1.012975e-002 -1.799814e-001 2.661779e+000 126 120 108
-8.028108e-002 -2.202330e-002 2.783902e+000 131 120 107
-8.159396e-002 -2.225849e-002 2.793133e+000 135 124 109
-5.040797e-002 -5.744809e-002 2.769138e+000 85 74 58
-4.925981e-002 -5.606284e-002 2.768071e+000 85 74 58
-4.608265e-002 -1.239237e-001 2.710121e+000 132 119 102
-3.392514e-001 3.812497e-001 3.104772e+000 43 36 26
-1.494973e-001 2.536166e-001 3.058822e+000 54 45 36
-1.267875e-001 -1.458797e-002 2.796303e+000 49 41 29
-8.599244e-002 5.220760e-003 2.812599e+000 51 41 31
-1.737370e-001 5.068859e-001 3.413745e+000 122 114 98
2.973650e+000 2.628767e+000 4.838856e-001 196 208 220
4.740034e-002 -1.477604e-002 2.994718e+000 103 99 84
-8.259955e-002 -6.855048e-002 2.745718e+000 130 121 106
-4.656415e-002 4.827611e-001 3.475516e+000 72 68 59
-4.656415e-002 4.827611e-001 3.475516e+000 72 68 59
-3.465940e-001 4.901370e-001 3.239132e+000 147 131 110
3.958914e-002 3.902283e-001 3.361393e+000 141 134 126
-3.138917e-001 4.204314e-001 3.152553e+000 128 120 104
1.230595e-001 1.045809e+000 3.000417e+000 130 141 150
2.163555e-001 8.338290e-001 3.363554e+000 90 44 47
4.298025e-001 -2.383709e-001 2.922563e+000 74 72 66
2.671680e-001 2.898687e-001 3.187102e+000 149 132 112
1.738971e-001 8.126142e-002 2.947392e+000 149 60 66
4.579545e-001 -8.506415e-002 2.886377e+000 154 63 72
4.579545e-001 -8.506415e-002 2.886377e+000 154 63 72
3.561032e-001 -2.755120e-002 2.921418e+000 157 141 118
3.800127e-001 6.368927e-002 2.991408e+000 152 67 74
2.529434e-001 -3.434722e-002 2.867649e+000 151 64 70
-1.776957e-001 3.246401e-001 3.103434e+000 142 122 97
-3.431814e-001 4.562054e-001 3.222019e+000 66 57 40
-3.431814e-001 4.562054e-001 3.222019e+000 66 57 40
-3.050932e-001 4.169902e-001 3.180841e+000 58 48 34
-3.050932e-001 4.169902e-001 3.180841e+000 58 48 34
2.964043e-001 8.407726e-002 2.975648e+000 155 134 113
2.964043e-001 8.407726e-002 2.975648e+000 155 134 113
4.178759e-001 -1.306126e-001 2.835233e+000 161 145 122
4.178759e-001 -1.306126e-001 2.835233e+000 161 145 122
1.408265e-001 1.681707e-001 3.020474e+000 142 58 62
1.408265e-001 1.681707e-001 3.020474e+000 142 58 62
1.014435e-001 1.358737e-001 2.980367e+000 148 130 107
-1.423119e-001 2.849087e-001 3.066675e+000 147 126 99
-1.112716e-001 2.453225e-001 3.035784e+000 145 128 102
-6.474052e-002 1.920159e-001 2.985625e+000 148 126 102
-2.385922e-001 3.421556e-001 3.108539e+000 80 69 52
-2.011400e-001 2.948781e-001 3.062429e+000 64 55 46
-1.657983e-001 2.505285e-001 3.025265e+000 109 94 76
-1.305811e-001 2.093163e-001 2.988415e+000 83 73 60
-9.672452e-002 1.602775e-001 2.948777e+000 64 54 44
3.408577e-001 -1.922108e-002 2.893006e+000 157 140 120
3.408577e-001 -1.922108e-002 2.893006e+000 157 140 120
4.307617e-001 -1.819704e-001 2.777542e+000 152 67 74
-3.585099e-002 3.454433e-001 3.153852e+000 140 120 95
3.226855e-001 -2.209944e-001 2.718143e+000 157 140 115
2.703741e-001 -1.887242e-001 2.726491e+000 153 62 71
2.703741e-001 -1.887242e-001 2.726491e+000 153 62 71
-1.982114e-001 3.627330e-001 3.137266e+000 140 119 91
-1.018093e-001 3.842269e-001 3.178007e+000 80 65 49
-1.911757e-001 4.664044e-001 3.259600e+000 59 45 33
-1.911757e-001 4.664044e-001 3.259600e+000 59 45 33
-5.609377e-002 3.167217e-001 3.121762e+000 63 51 37
-2.864835e-002 2.826424e-001 3.092558e+000 137 123 104
4.051103e-002 1.878729e-001 3.013745e+000 123 112 99
4.051103e-002 1.878729e-001 3.013745e+000 123 112 99
-9.380666e-002 3.242314e-001 3.121355e+000 144 123 96
-9.380666e-002 3.242314e-001 3.121355e+000 144 123 96
-1.575443e-001 3.595005e-001 3.143329e+000 84 71 55
-1.103569e-001 2.980749e-001 3.092876e+000 136 123 106
-8.633584e-002 2.703649e-001 3.063742e+000 60 47 30
-3.836115e-002 2.081494e-001 3.015148e+000 64 48 32
-1.757329e-002 1.720664e-001 2.986300e+000 68 52 35
-1.757329e-002 1.720664e-001 2.986300e+000 68 52 35
-1.113629e-001 -3.903422e-003 2.794067e+000 70 66 59
2.143037e-002 5.472898e-001 3.402669e+000 139 126 107
6.255870e-002 5.047916e-001 3.361688e+000 105 94 76
5.213265e-001 -1.138132e-001 2.878508e+000 151 68 76
5.213265e-001 -1.138132e-001 2.878508e+000 151 68 76
1.377968e-001 4.122647e-001 3.280497e+000 105 92 75
1.752577e-001 3.606106e-001 3.236296e+000 73 61 45
2.276351e-001 2.938883e-001 3.180657e+000 130 118 104
2.422135e-001 2.643636e-001 3.158371e+000 91 79 63
1.187892e-001 3.966055e-001 3.254949e+000 145 127 103
1.187892e-001 3.966055e-001 3.254949e+000 145 127 103
4.088352e-002 4.414746e-001 3.289288e+000 98 86 72
8.038818e-002 3.935317e-001 3.246637e+000 108 95 78
1.360911e-001 3.212959e-001 3.185343e+000 125 113 97
1.360911e-001 3.212959e-001 3.185343e+000 125 113 97
4.050323e-001 -2.135823e-001 2.759612e+000 162 146 123
2.484348e-001 -9.824805e-002 2.811620e+000 153 63 72
-2.212597e-001 3.187406e-001 3.083223e+000 136 118 95
-2.338455e-002 -1.467101e-001 2.697288e+000 155 135 111
4.083928e-001 7.622933e-002 3.027051e+000 162 139 121
3.850763e-001 9.474743e-002 3.034138e+000 152 65 73
3.850763e-001 9.474743e-002 3.034138e+000 152 65 73
4.155381e-002 5.250113e-001 3.381481e+000 81 68 52
4.155381e-002 5.250113e-001 3.381481e+000 81 68 52
1.584336e-001 3.922312e-001 3.260003e+000 97 86 70
2.078237e-001 3.212593e-001 3.202038e+000 99 83 67
2.640812e-001 2.393490e-001 3.134636e+000 145 133 117
2.640812e-001 2.393490e-001 3.134636e+000 145 133 117
2.640812e-001 2.393490e-001 3.134636e+000 145 133 117
2.900125e-001 6.335123e-002 2.947502e+000 158 139 116
2.900125e-001 6.335123e-002 2.947502e+000 158 139 116
3.545481e-001 -2.219985e-001 2.731160e+000 155 70 75
-7.779347e-002 3.488289e-001 3.140660e+000 76 64 49
2.357777e-004 1.961994e-001 3.017330e+000 151 131 105
-5.583750e-002 2.716460e-001 3.075095e+000 149 132 106
-1.598556e-001 2.618098e-001 3.041919e+000 57 53 43
-1.598556e-001 2.618098e-001 3.041919e+000 57 53 43
-2.885724e-001 3.978556e-001 3.163986e+000 137 114 85
-1.416781e-001 2.339025e-001 3.010739e+000 150 129 108
-1.416781e-001 2.339025e-001 3.010739e+000 150 129 108
-3.128961e-001 4.058502e-001 3.164954e+000 53 48 37
4.538345e-002 -2.399239e-001 2.633052e+000 77 73 60
-1.024537e-001 -4.257458e-002 2.774945e+000 72 65 55
2.765288e-001 1.698144e-002 2.919488e+000 155 135 114
3.233700e-001 -6.854375e-002 2.858049e+000 156 135 116
4.298880e-001 -2.792501e-001 2.699418e+000 154 69 76
1.862000e-001 1.527759e-002 2.888969e+000 149 58 67
-6.804780e-002 3.326684e-001 3.137586e+000 140 120 93
-6.804780e-002 3.326684e-001 3.137586e+000 140 120 93
-1.312708e-001 3.660802e-001 3.158119e+000 138 118 93
-7.947046e-002 3.036826e-001 3.101956e+000 141 123 101
-3.885498e-002 2.513001e-001 3.055309e+000 149 130 106
7.124589e-003 1.835321e-001 3.003435e+000 145 128 102
7.124589e-003 1.835321e-001 3.003435e+000 145 128 102
