ply
format ascii 1.0
element face 0
property list uchar int vertex_indices
element vertex 403
property float x
property float y
property float z
property uchar diffuse_red
property uchar diffuse_green
property uchar diffuse_blue
end_header
1.957742e+000 -1.192209e+000 -6.913042e+000 203 182 70
2.250700e+000 -9.179800e-001 -6.340411e+000 221 195 83
2.250700e+000 -9.179800e-001 -6.340411e+000 221 195 83
2.271139e+000 -9.079005e-001 -6.300380e+000 177 153 51
2.271070e+000 -8.008093e-001 -6.315463e+000 214 189 76
2.279530e+000 -7.207313e-001 -6.283872e+000 215 190 73
2.261953e+000 -8.428324e-001 -6.327168e+000 215 191 85
2.612376e+000 -5.057605e-001 -5.470517e+000 226 182 185
2.228820e+000 -1.017422e+000 -6.380850e+000 212 189 70
1.962209e+000 -1.151610e+000 -6.921690e+000 41 28 0
1.962209e+000 -1.151610e+000 -6.921690e+000 41 28 0
2.618119e+000 -3.852087e-001 -5.452898e+000 234 192 195
2.609944e+000 -4.378628e-001 -5.470575e+000 239 180 181
2.170496e+000 -6.635842e-001 -6.481766e+000 218 186 68
-9.749941e-001 5.306352e-001 -4.618248e+000 21 27 43
-9.749941e-001 5.306352e-001 -4.618248e+000 21 27 43
-9.749941e-001 5.306352e-001 -4.618248e+000 21 27 43
-9.340417e-001 -2.576263e-001 -5.121606e+000 23 24 28
8.836435e-001 5.177483e-002 -5.752666e+000 210 178 197
3.369080e-002 3.619532e-001 -5.609755e+000 152 22 32
-1.019122e+000 6.470851e-001 -4.623411e+000 192 205 242
1.069212e+000 -1.987205e-002 -5.595139e+000 180 117 131
1.363666e+000 2.085352e-001 -5.646229e+000 188 119 130
1.023914e+000 5.880053e-001 -5.596583e+000 213 193 208
1.023914e+000 5.880053e-001 -5.596583e+000 213 193 208
3.562275e-001 5.063485e-001 -5.479093e+000 72 2 3
-9.567229e-001 3.971906e-001 -4.675660e+000 187 201 240
8.405562e-001 5.803789e-001 -5.600491e+000 95 0 2
4.550717e-001 1.035959e+000 -5.648187e+000 163 18 29
2.410158e+000 -1.187819e+000 -5.975472e+000 202 197 106
1.018197e+000 4.309675e-002 -5.675579e+000 72 5 8
-2.190137e-002 4.588720e-001 -5.593720e+000 225 56 94
-2.190137e-002 4.588720e-001 -5.593720e+000 225 56 94
-6.452414e-001 4.528737e-001 -4.692891e+000 108 54 70
1.403676e-001 6.722322e-001 -5.497116e+000 217 202 221
-1.027278e+000 5.264556e-001 -4.598118e+000 18 20 30
3.938692e-001 1.128501e+000 -5.647454e+000 171 150 172
2.612376e+000 -5.057605e-001 -5.470517e+000 226 182 185
9.215983e-001 -8.202224e-002 -5.685784e+000 51 9 18
8.337755e-001 1.295794e-001 -5.798768e+000 139 29 46
-5.554740e-001 3.135061e-001 -4.626965e+000 157 99 113
1.064097e+000 6.799244e-001 -5.591443e+000 44 9 7
9.881700e-002 5.961190e-001 -5.482444e+000 82 11 26
-6.613673e-001 4.982587e-001 -4.683220e+000 235 181 195
-1.068012e+000 4.755734e-001 -4.634582e+000 183 230 255
-9.980990e-001 6.018665e-001 -4.506622e+000 179 225 255
-1.022404e+000 6.671961e-001 -4.622640e+000 243 231 243
-9.259982e-001 7.778925e-001 -4.574733e+000 225 165 177
9.755893e-001 -2.991543e-002 -5.703382e+000 66 13 22
1.270798e+000 9.008081e-002 -5.592176e+000 95 35 39
1.141886e+000 9.753623e-002 -5.649254e+000 172 101 113
6.583594e-001 1.991326e-001 -5.749035e+000 115 4 13
9.279315e-001 6.269727e-001 -5.591183e+000 104 11 16
-1.232674e-001 6.307165e-001 -5.495942e+000 108 9 22
-9.864781e-001 4.971598e-001 -4.644091e+000 255 254 254
5.420419e-001 9.907829e-001 -5.635718e+000 153 14 28
-1.030380e+000 7.888512e-001 -4.588229e+000 227 167 179
-1.145170e+000 7.877515e-001 -4.602502e+000 133 74 96
4.291640e-001 1.178675e+000 -5.647596e+000 166 22 33
1.631826e+000 1.331980e+000 -5.368707e+000 69 31 28
1.631826e+000 1.331980e+000 -5.368707e+000 69 31 28
1.816101e+000 -3.480895e+000 -1.285418e+001 97 90 106
-1.263496e+000 -2.879723e+000 -1.315207e+001 72 44 55
2.257446e+000 -8.844643e-001 -6.337022e+000 214 191 78
-9.363258e-001 -1.927387e-001 -5.098888e+000 251 253 255
9.336041e-001 -4.211675e-002 -5.744498e+000 173 134 153
2.191418e+000 6.206281e-001 -6.401457e+000 110 64 25
-9.649737e-001 4.270556e-001 -4.635291e+000 165 217 254
-1.097844e+000 4.474776e-001 -4.653802e+000 168 156 197
-7.084083e-001 6.392516e-001 -4.610649e+000 170 104 126
-9.762575e-001 7.598944e-001 -4.582989e+000 178 107 123
-1.022994e+000 7.558320e-001 -4.581056e+000 174 107 127
-1.022994e+000 7.558320e-001 -4.581056e+000 174 107 127
1.755522e+000 1.461979e+000 -5.522832e+000 69 30 30
9.997576e-001 1.673725e+000 -5.811784e+000 140 24 34
2.614860e+000 -3.009054e+000 -1.052119e+001 103 99 121
2.355824e+000 -3.114160e+000 -1.132191e+001 108 101 117
2.476628e+000 -2.647272e+000 -1.088973e+001 64 53 67
2.389259e+000 -2.435731e+000 -1.124107e+001 74 53 61
2.339923e+000 -2.441900e+000 -1.130079e+001 124 120 134
2.339923e+000 -2.441900e+000 -1.130079e+001 124 120 134
2.589682e+000 -6.142923e-001 -5.528622e+000 240 184 195
2.608398e+000 -5.778917e-001 -5.464693e+000 242 193 212
2.225521e+000 -7.154771e-001 -6.408419e+000 164 169 117
2.617429e+000 -4.906260e-001 -5.441760e+000 234 173 188
2.278231e+000 -6.215803e-001 -6.293205e+000 177 147 41
9.827715e-001 1.079605e-002 -5.703500e+000 171 124 141
-5.830699e-001 -4.039268e-002 -4.792820e+000 226 178 187
-5.740997e-001 5.739074e-003 -4.756944e+000 219 171 182
-5.318682e-001 8.803952e-002 -4.702445e+000 157 101 112
-5.318682e-001 8.803952e-002 -4.702445e+000 157 101 112
-1.002913e+000 8.102023e-002 -4.674410e+000 215 151 168
-5.397383e-001 2.558862e-001 -4.648834e+000 157 99 112
-9.919813e-001 2.405388e-001 -4.706909e+000 245 182 191
8.574250e-002 6.261344e-001 -5.462163e+000 233 218 230
1.154619e-001 6.460288e-001 -5.454839e+000 229 219 231
-9.714298e-001 6.662678e-001 -4.616938e+000 241 217 230
3.693079e-001 9.816486e-001 -5.637758e+000 203 132 150
-1.062100e+000 7.715361e-001 -4.581696e+000 232 172 179
4.271102e-001 1.097569e+000 -5.639462e+000 152 22 54
2.834380e+000 -3.418127e+000 -1.003504e+001 111 103 121
2.505661e+000 -3.724289e+000 -1.092948e+001 100 95 114
2.601210e+000 -3.563971e+000 -1.067729e+001 115 112 130
2.624398e+000 -3.223660e+000 -1.059688e+001 117 106 126
2.508556e+000 -2.778393e+000 -1.096000e+001 73 58 66
2.161353e+000 -2.274489e+000 -1.172855e+001 107 92 111
1.960965e+000 -2.439873e+000 -1.241285e+001 97 86 99
2.121098e+000 -2.060703e+000 -1.190108e+001 107 91 101
2.616717e+000 -7.198174e-001 -5.455967e+000 247 142 75
2.261953e+000 -8.428324e-001 -6.327168e+000 215 191 85
2.618376e+000 -5.335956e-001 -5.449178e+000 249 179 194
2.637438e+000 -3.386547e-001 -5.383894e+000 215 78 123
9.223734e-001 2.507237e-002 -5.706481e+000 223 194 208
5.083781e-002 6.102356e-001 -5.459512e+000 239 225 235
-1.427456e-001 5.994803e-001 -5.461780e+000 209 176 193
1.612929e+000 1.104953e+000 -5.275395e+000 159 96 109
5.583545e-001 1.034178e+000 -5.663249e+000 212 136 155
9.989781e-001 -3.002441e-001 -5.537874e+000 215 148 157
-5.805628e-002 5.392781e-001 -5.548613e+000 243 238 244
-3.129321e-001 6.079852e-001 -5.275895e+000 34 19 22
2.038984e+000 8.559850e-001 -6.377395e+000 192 132 142
-1.092988e-001 3.108460e-001 -5.640242e+000 235 234 242
-2.749630e-002 1.561472e+000 -5.985760e+000 161 15 26
-1.321350e+000 -3.008404e+000 -1.299044e+001 58 58 69
-8.867182e-002 1.924792e-001 -5.807492e+000 198 32 51
1.453434e+000 3.354328e-001 -5.784960e+000 67 9 9
-3.083680e+000 3.273413e+000 -1.233312e+001 23 21 26
3.536257e-001 -3.540686e+000 -1.364047e+001 9 9 9
7.799594e-001 7.596508e-002 -5.792566e+000 238 230 239
-1.804729e-001 2.341115e-001 -5.706720e+000 230 212 229
2.413549e+000 -1.190042e+000 -5.983739e+000 202 197 106
1.200950e+000 1.211929e-001 -5.639800e+000 189 123 137
2.627147e-001 5.296934e-001 -5.487367e+000 230 208 219
-8.189383e-002 7.944450e-001 -5.565785e+000 91 1 7
1.604247e+000 1.487098e+000 -5.480240e+000 169 119 130
8.583221e-001 -5.055172e+000 -1.506700e+001 42 42 51
2.448095e+000 -3.737746e+000 -1.106469e+001 37 33 48
2.448095e+000 -3.737746e+000 -1.106469e+001 37 33 48
3.093181e+000 -3.022229e+000 -9.311718e+000 60 49 63
2.745722e+000 -2.832945e+000 -1.016864e+001 64 55 67
2.496468e+000 -2.120803e+000 -8.414742e+000 188 174 148
4.958465e-001 -3.331198e+000 -1.343754e+001 104 81 65
2.627545e+000 -3.768650e-001 -5.420700e+000 224 181 194
2.627545e+000 -3.768650e-001 -5.420700e+000 224 181 194
2.303611e+000 -3.285449e-001 -6.294203e+000 220 184 47
5.996413e-001 1.770494e+000 -5.966699e+000 67 1 0
2.749506e+000 -3.294006e+000 -1.019768e+001 53 42 52
2.749506e+000 -3.294006e+000 -1.019768e+001 53 42 52
2.377316e+000 -2.011883e+000 -8.708852e+000 178 171 140
1.565982e+000 -2.648214e+000 -1.275339e+001 110 84 65
1.432630e+000 -2.600152e+000 -1.277898e+001 18 29 45
2.116441e+000 -2.220776e+000 -1.188207e+001 54 41 43
2.586691e+000 -6.187021e-001 -5.458902e+000 225 190 208
2.138214e+000 3.504977e-001 -6.511850e+000 147 111 50
4.889408e-001 8.900872e-001 -5.593658e+000 148 19 29
1.757314e+000 1.462164e+000 -5.527979e+000 69 30 30
2.396248e+000 -4.016777e+000 -1.121997e+001 84 79 97
2.615534e+000 -3.420155e+000 -1.071096e+001 98 89 106
2.946042e+000 -2.962200e+000 -9.608136e+000 56 43 54
1.796144e+000 -3.785393e+000 -1.284352e+001 10 10 12
1.796144e+000 -3.785393e+000 -1.284352e+001 10 10 12
2.791799e+000 -2.954284e+000 -1.008525e+001 59 47 61
2.791799e+000 -2.954284e+000 -1.008525e+001 59 47 61
2.588447e+000 -3.067991e+000 -1.068931e+001 59 52 64
2.588447e+000 -3.067991e+000 -1.068931e+001 59 52 64
1.696882e+000 -2.839567e+000 -1.299276e+001 47 38 45
2.030935e+000 -2.385400e+000 -1.206146e+001 52 42 42
1.964286e+000 -1.196479e+000 -6.935564e+000 203 182 70
2.595067e+000 -6.222451e-001 -5.474571e+000 227 196 213
2.623957e+000 -4.354587e-001 -5.416681e+000 236 188 201
2.630274e+000 -3.724079e-001 -5.390721e+000 245 191 207
2.207707e+000 -2.855974e-001 -6.271548e+000 114 69 10
-6.050900e-001 -9.637383e-002 -4.826439e+000 229 178 190
-5.039645e-001 1.863431e-001 -4.683442e+000 225 164 172
4.811778e-001 2.300901e-001 -5.757779e+000 125 4 14
2.176623e+000 2.948187e-001 -6.529465e+000 84 49 7
-4.410458e-001 4.333732e-001 -4.683938e+000 207 155 168
2.245273e+000 6.462481e-001 -6.401231e+000 176 139 90
3.624873e-001 5.770412e-001 -5.532589e+000 156 27 44
-6.798460e-001 5.865280e-001 -4.623508e+000 189 126 143
-6.798460e-001 5.865280e-001 -4.623508e+000 189 126 143
2.821059e-001 7.139022e-001 -5.398875e+000 219 197 209
4.369620e-001 7.324176e-001 -5.459620e+000 246 224 228
4.369620e-001 7.324176e-001 -5.459620e+000 246 224 228
-7.078041e-001 6.392934e-001 -4.605249e+000 170 104 126
5.228640e-001 8.553860e-001 -5.632345e+000 205 172 197
-7.981355e-001 7.036294e-001 -4.582709e+000 233 178 193
-8.410219e-001 7.389575e-001 -4.584746e+000 226 172 182
-1.121714e+000 7.590996e-001 -4.595339e+000 229 167 180
1.249898e+000 1.156978e+000 -5.251250e+000 184 132 143
2.903524e+000 -3.240515e+000 -9.818826e+000 52 45 57
2.574881e+000 -3.522675e+000 -1.078902e+001 101 97 119
2.512971e+000 -3.515743e+000 -1.091391e+001 105 97 118
2.248802e+000 -3.671549e+000 -1.159405e+001 53 51 65
2.231151e+000 -3.605695e+000 -1.161151e+001 85 78 96
2.168716e+000 -3.542077e+000 -1.175320e+001 39 35 49
2.876050e+000 -2.853344e+000 -9.875904e+000 57 41 47
2.876050e+000 -2.853344e+000 -9.875904e+000 57 41 47
2.471655e+000 -2.968516e+000 -1.103655e+001 57 46 54
1.684888e+000 -3.536244e+000 -1.322878e+001 88 85 103
2.527656e+000 -2.219018e+000 -8.337171e+000 187 178 144
2.628973e+000 -2.681280e+000 -1.045787e+001 67 55 65
1.747433e+000 -3.151214e+000 -1.302269e+001 54 48 60
2.378139e+000 -2.089868e+000 -8.656424e+000 113 98 80
2.165704e+000 -2.461780e+000 -1.179327e+001 63 47 57
2.389049e+000 -2.317655e+000 -1.113259e+001 121 118 134
2.219638e+000 -8.979331e-001 -6.428048e+000 216 192 86
2.599835e+000 -6.499701e-001 -5.555407e+000 221 70 104
2.597509e+000 -5.627188e-001 -5.517559e+000 239 180 193
2.121994e+000 -5.710930e-001 -6.620849e+000 228 191 78
2.321437e+000 -4.817523e-001 -6.221417e+000 229 196 57
2.321437e+000 -4.817523e-001 -6.221417e+000 229 196 57
8.512145e-001 -3.821520e-001 -5.556722e+000 169 46 60
2.268095e+000 -3.644402e-001 -6.277695e+000 97 62 2
2.635978e+000 -3.121388e-001 -5.370655e+000 232 191 210
2.240990e+000 -3.241427e-001 -6.282441e+000 120 75 14
2.636132e+000 -2.550027e-001 -5.410230e+000 240 192 195
2.210640e+000 3.099766e-001 -6.515046e+000 176 139 48
-4.191684e-001 4.529606e-001 -4.726390e+000 171 123 144
-4.055092e-001 4.825539e-001 -4.751605e+000 220 191 199
-1.116088e+000 4.921829e-001 -4.649011e+000 173 160 195
1.286223e-001 6.230596e-001 -5.460912e+000 73 21 45
3.686616e-001 6.711929e-001 -5.473001e+000 243 214 219
1.388774e-001 7.211286e-001 -5.502331e+000 71 6 13
-6.791604e-001 6.332995e-001 -4.629619e+000 237 174 184
-9.806859e-001 7.316436e-001 -4.573718e+000 228 165 173
-1.040498e+000 8.217779e-001 -4.598254e+000 157 100 122
-3.973198e+000 4.056051e+000 -1.193376e+001 146 93 86
2.264412e+000 -4.046740e+000 -1.155263e+001 51 45 59
2.306061e+000 -3.990354e+000 -1.143359e+001 89 87 105
1.011841e+000 -5.171908e+000 -1.494958e+001 48 48 57
2.297370e+000 -3.875873e+000 -1.140598e+001 88 85 102
2.767349e+000 -3.456631e+000 -1.023424e+001 59 54 71
3.077850e+000 -3.115210e+000 -9.324263e+000 56 47 62
2.460512e+000 -3.596374e+000 -1.112962e+001 99 95 118
2.392299e+000 -3.620529e+000 -1.131561e+001 56 46 58
2.905388e+000 -3.078755e+000 -9.759742e+000 117 110 126
2.432062e+000 -3.385349e+000 -1.104750e+001 53 46 61
2.595156e+000 -3.254803e+000 -1.067351e+001 68 59 74
2.214456e+000 -3.511923e+000 -1.172191e+001 88 81 97
1.670640e+000 -3.940999e+000 -1.323417e+001 36 26 32
2.575938e+000 -3.169739e+000 -1.071105e+001 100 93 109
2.029797e+000 -3.589077e+000 -1.224781e+001 52 47 68
2.029797e+000 -3.589077e+000 -1.224781e+001 52 47 68
2.737255e+000 -2.909416e+000 -1.021031e+001 47 34 47
2.153476e+000 -3.369003e+000 -1.194741e+001 90 78 86
1.887390e+000 -3.554322e+000 -1.267098e+001 44 36 49
2.515545e+000 -2.988490e+000 -1.080063e+001 57 46 60
2.031154e+000 -3.235668e+000 -1.221227e+001 57 49 60
2.028838e+000 -3.151110e+000 -1.216677e+001 89 85 99
2.028838e+000 -3.151110e+000 -1.216677e+001 89 85 99
2.569579e+000 -2.624910e+000 -1.068117e+001 106 99 115
2.569579e+000 -2.624910e+000 -1.068117e+001 106 99 115
2.479199e+000 -2.650057e+000 -1.090073e+001 64 53 67
2.479199e+000 -2.650057e+000 -1.090073e+001 64 53 67
1.296243e+000 -3.093475e+000 -1.432335e+001 74 67 78
2.205617e+000 -2.276742e+000 -1.167241e+001 68 55 68
2.414831e+000 -1.187315e+000 -5.986131e+000 197 196 106
2.397593e+000 -2.101610e+000 -1.115050e+001 71 60 79
2.249464e+000 -2.082793e+000 -1.140372e+001 91 79 87
2.249464e+000 -2.082793e+000 -1.140372e+001 91 79 87
2.075367e+000 -2.094717e+000 -1.195587e+001 62 50 55
2.605063e+000 -5.198641e-001 -5.499399e+000 233 187 193
2.336801e+000 -2.552258e-001 -6.196744e+000 175 144 33
2.642869e+000 -2.123194e-001 -5.398261e+000 237 192 205
2.255231e+000 5.672312e-001 -6.355836e+000 139 84 16
-8.529811e-001 4.720325e-001 -4.631825e+000 182 160 191
-1.066114e+000 5.190931e-001 -4.616664e+000 147 198 228
-9.292357e-001 6.547666e-001 -4.606246e+000 235 199 217
5.248921e-001 9.043527e-001 -5.605476e+000 202 159 176
-8.220925e-001 7.604227e-001 -4.584322e+000 146 87 107
3.690183e-001 9.810968e-001 -5.633812e+000 203 132 150
-9.345258e-001 8.409958e-001 -4.599667e+000 216 161 173
5.166043e-001 1.133040e+000 -5.678708e+000 142 34 59
-3.973643e+000 3.593037e+000 -1.191966e+001 144 80 72
-5.395328e+000 3.631976e+000 -1.162457e+001 128 72 58
-5.395328e+000 3.631976e+000 -1.162457e+001 128 72 58
-5.547915e+000 3.618203e+000 -1.154825e+001 125 72 64
-5.547915e+000 3.618203e+000 -1.154825e+001 125 72 64
-3.886858e+000 3.745035e+000 -1.199609e+001 129 57 41
-3.973361e+000 3.759407e+000 -1.204017e+001 130 57 30
-5.090611e+000 3.714991e+000 -1.161314e+001 130 72 56
-3.852845e+000 3.824871e+000 -1.196762e+001 132 53 30
-4.960857e+000 3.827538e+000 -1.167039e+001 134 72 65
-4.918152e+000 3.916535e+000 -1.163943e+001 135 75 58
-3.557026e+000 4.049331e+000 -1.199121e+001 143 85 86
2.463294e+000 -1.746071e+000 -5.824275e+000 214 38 63
7.064650e-001 2.863639e-001 -5.657294e+000 204 29 53
7.064650e-001 2.863639e-001 -5.657294e+000 204 29 53
-8.174458e-001 -3.192050e-001 -5.133493e+000 235 183 196
-8.739343e-001 5.757207e-001 -4.616600e+000 162 189 226
2.195784e+000 1.160894e+000 -6.008676e+000 212 176 116
-3.205103e+000 3.795181e+000 -1.460334e+001 29 26 34
8.103703e-001 -1.820070e-002 -5.787480e+000 81 4 10
-3.006853e+000 4.097184e+000 -1.662041e+001 96 85 103
1.277684e+000 -2.601796e+000 -1.351642e+001 25 29 49
1.978177e+000 -1.077881e+000 -6.883962e+000 203 178 60
1.306090e+000 -7.914510e-002 -5.412493e+000 215 151 156
7.150799e-001 6.834289e-002 -5.848995e+000 199 45 81
2.646713e-001 1.282241e-001 -5.680017e+000 204 42 82
7.272782e-001 1.676334e-001 -5.767512e+000 111 13 20
-6.464516e-001 4.065897e-001 -4.652571e+000 211 160 172
4.875600e-001 9.379050e-001 -5.651546e+000 138 12 28
-9.969638e-001 7.929803e-001 -4.595011e+000 224 165 176
2.103634e+000 -2.354014e+000 -1.206511e+001 104 96 105
8.529681e-001 2.664601e-003 -5.758299e+000 223 197 213
2.246673e+000 5.749492e-001 -6.325323e+000 149 93 24
1.098269e+000 6.286983e-001 -5.539520e+000 102 6 13
-8.649053e-001 9.655522e-001 -4.652356e+000 158 124 143
3.037798e+000 -3.280115e+000 -9.499696e+000 122 117 137
2.797401e+000 -3.395096e+000 -1.014327e+001 117 111 132
2.355755e+000 -3.114234e+000 -1.132257e+001 108 101 117
2.706884e+000 -2.668296e+000 -1.031710e+001 120 114 129
2.633062e+000 -2.685741e+000 -1.047576e+001 67 55 65
2.329322e+000 -1.528688e+000 -6.074305e+000 201 153 45
2.329322e+000 -1.528688e+000 -6.074305e+000 201 153 45
2.396597e+000 -2.438645e+000 -1.125805e+001 74 53 61
2.222476e+000 -8.564538e-001 -6.402427e+000 217 194 83
2.265707e+000 -7.503390e-001 -6.328417e+000 163 137 40
2.308971e+000 -5.102125e-001 -6.209597e+000 225 194 63
-9.187037e-001 3.913779e-001 -4.668612e+000 245 237 249
1.076895e+000 5.274749e-001 -5.559234e+000 201 41 74
3.017762e+000 -3.379897e+000 -9.657834e+000 116 113 136
2.562324e+000 -3.571897e+000 -1.072958e+001 51 47 63
3.000164e+000 -3.102557e+000 -9.549964e+000 115 100 121
2.864260e+000 -3.198735e+000 -9.931577e+000 32 30 45
2.711565e+000 -3.271470e+000 -1.042420e+001 115 109 126
2.423585e+000 -3.383869e+000 -1.118954e+001 113 109 127
2.665733e+000 -2.741341e+000 -1.038218e+001 67 61 76
2.474124e+000 -2.896976e+000 -1.099932e+001 116 108 123
2.508448e+000 -2.635676e+000 -1.079907e+001 104 104 123
2.596807e+000 -2.528912e+000 -1.052906e+001 111 103 121
2.123071e+000 -2.061407e+000 -1.190663e+001 107 91 101
2.591581e+000 -5.943248e-001 -5.481753e+000 208 106 133
2.591581e+000 -5.943248e-001 -5.481753e+000 208 106 133
2.582678e+000 -5.284434e-001 -5.507848e+000 206 60 87
2.616545e+000 -4.636327e-001 -5.458852e+000 208 95 123
2.333187e+000 -4.661451e-001 -6.158240e+000 167 135 16
2.631237e+000 -2.304376e-001 -5.412106e+000 215 80 98
2.631237e+000 -2.304376e-001 -5.412106e+000 215 80 98
2.355735e+000 -2.662269e-002 -6.097531e+000 167 136 16
2.559257e+000 8.373425e-002 -5.554646e+000 184 158 92
-6.946258e-001 4.547694e-001 -4.683643e+000 220 158 170
1.796305e-001 6.884374e-001 -5.467569e+000 187 157 176
-7.900772e-001 9.424623e-001 -4.662960e+000 132 93 111
-2.531296e+000 3.233644e+000 -1.209085e+001 91 86 95
1.657777e+000 3.992410e-001 -6.033204e+000 205 41 51
-2.538526e+000 1.797972e+000 -1.251727e+001 124 105 114
1.939169e+000 -1.170908e+000 -6.869553e+000 226 207 90
-8.092971e-001 3.322677e-001 -4.775840e+000 223 153 168
-8.092971e-001 3.322677e-001 -4.775840e+000 223 153 168
1.377654e+000 1.221796e-001 -5.541617e+000 132 26 23
9.771247e-001 1.584388e-001 -5.802559e+000 135 14 22
-9.844211e-001 1.992838e-001 -4.684291e+000 223 160 168
1.453965e+000 1.371267e+000 -5.343922e+000 200 144 155
-1.986714e+000 2.100810e+000 -1.177144e+001 121 100 115
-5.245919e-001 -1.623171e-001 -5.048417e+000 251 208 218
1.174282e+000 5.838577e-002 -5.509121e+000 134 59 62
8.062117e-001 -2.307313e+000 -1.254621e+001 150 127 125
-8.460931e-001 3.109058e-001 -4.661889e+000 217 152 166
3.639006e-001 6.738573e-001 -5.491523e+000 249 236 236
2.195680e+000 -1.843880e+000 -9.144442e+000 197 186 164
1.973163e+000 -1.093616e+000 -6.874210e+000 234 210 88
2.267982e+000 -6.474876e-001 -6.215476e+000 243 216 80
2.321896e+000 -5.458611e-001 -6.167907e+000 190 158 35
2.321896e+000 -5.458611e-001 -6.167907e+000 190 158 35
-5.720038e-001 3.519298e-001 -4.641910e+000 186 125 131
-6.126151e-001 4.221545e-001 -4.644276e+000 149 91 108
-9.861941e-001 8.274236e-001 -4.600956e+000 184 119 134
2.395784e+000 -2.323061e+000 -1.115095e+001 153 149 170
2.194985e+000 -8.631594e-001 -6.441615e+000 184 192 135
2.194985e+000 -8.631594e-001 -6.441615e+000 184 192 135
2.293032e+000 -6.022193e-001 -6.259587e+000 246 219 83
1.197339e+000 -3.467329e-001 -5.428973e+000 163 93 103
1.288232e+000 -1.216548e-001 -5.401686e+000 156 83 91
-5.917593e-001 3.296066e-001 -4.643801e+000 247 197 208
2.694487e+000 -3.110237e+000 -1.036621e+001 140 131 150
2.608443e+000 -2.734587e+000 -1.053882e+001 128 115 128
2.450373e+000 -2.856374e+000 -1.103057e+001 80 68 82
2.221781e+000 -9.632408e-001 -6.395798e+000 200 170 46
2.221781e+000 -9.632408e-001 -6.395798e+000 200 170 46
2.269460e+000 -9.072235e-001 -6.297305e+000 200 173 44
2.227408e+000 -8.902343e-001 -6.360710e+000 196 170 45
2.227408e+000 -8.902343e-001 -6.360710e+000 196 170 45
2.016882e+000 -2.154009e+000 -1.214303e+001 74 49 49
2.325674e+000 -5.065516e-001 -6.168444e+000 206 173 42
-9.848272e-001 -4.170051e-001 -5.330696e+000 236 189 200
2.310970e+000 -3.792716e-001 -6.212931e+000 206 171 32
-1.031564e+000 -2.438159e-001 -5.123026e+000 157 204 237
-1.040606e+000 -1.946400e-001 -5.074504e+000 119 141 190
9.138699e-001 1.381800e-001 -5.779911e+000 150 41 66
-1.013258e+000 3.100940e-001 -4.707310e+000 228 166 183
-7.665313e-001 3.911904e-001 -4.661446e+000 202 130 146
3.184318e-001 6.623871e-001 -5.447724e+000 155 106 126
3.329789e-001 6.881770e-001 -5.457905e+000 247 224 229
-1.172464e+000 8.402457e-001 -4.646950e+000 249 196 203
1.703380e+000 1.487550e+000 -5.501372e+000 189 140 135
-1.659922e-002 3.691483e-003 2.218830e-001 0 255 0
-1.650897e-002 3.608349e-003 1.718832e-001 255 255 0
-6.942370e-001 7.225278e-001 5.952615e-001 255 0 0
-6.911974e-001 7.200272e-001 5.454166e-001 255 255 0
-1.321036e+000 1.876764e-001 -1.456503e-001 0 255 0
-1.309377e+000 1.862240e-001 -1.942502e-001 255 255 0
