ply
format ascii 1.0
element face 0
property list uchar int vertex_indices
element vertex 895
property float x
property float y
property float z
property uchar diffuse_red
property uchar diffuse_green
property uchar diffuse_blue
end_header
1.934564e-001 -6.400671e-001 3.511308e+000 38 27 15
4.154153e-001 -6.177268e-001 3.446147e+000 40 26 14
4.154153e-001 -6.177268e-001 3.446147e+000 40 26 14
4.396038e-001 -6.146804e-001 3.438610e+000 49 38 20
8.443897e-002 -6.562029e-001 3.554502e+000 111 98 79
8.495687e-002 -6.579175e-001 3.554456e+000 111 98 79
3.670457e-001 -6.260709e-001 3.466739e+000 57 41 27
3.668225e-001 -6.240556e-001 3.466694e+000 57 41 27
1.008616e-001 -6.576553e-001 3.556266e+000 56 44 30
8.238543e-002 -6.649242e-001 3.569090e+000 121 106 83
2.092718e-001 -6.502794e-001 3.529633e+000 38 29 21
2.143451e-001 -6.552458e-001 3.537706e+000 38 29 18
9.440930e-001 -5.884320e-001 3.383850e+000 65 50 31
2.583032e-001 1.700808e-001 4.118080e+000 152 144 125
7.131471e-001 -3.636028e-001 2.433784e+000 177 196 203
6.337881e-001 -3.165018e-001 2.479036e+000 171 188 196
6.699221e-001 -3.155272e-001 2.471719e+000 177 194 202
6.699221e-001 -3.155272e-001 2.471719e+000 177 194 202
6.570978e-001 -2.905605e-001 2.491078e+000 183 203 214
6.726614e-001 -2.774316e-001 2.486084e+000 91 111 122
6.873394e-001 -2.014664e-001 2.525620e+000 134 150 157
1.068977e+000 -1.604322e-001 2.452024e+000 109 117 117
4.568225e-001 -1.958044e-001 2.711646e+000 124 118 101
4.266949e-001 -2.171518e-001 2.758894e+000 64 57 41
9.540932e-001 1.009276e-001 2.629569e+000 156 165 172
9.540932e-001 1.009276e-001 2.629569e+000 156 165 172
8.870983e-001 1.227014e-001 2.650237e+000 102 112 121
8.551317e-001 1.408203e-001 2.666127e+000 187 197 206
9.800263e-001 1.953188e-001 2.674120e+000 181 190 197
9.833141e-001 2.095633e-001 2.686217e+000 185 195 201
9.710858e-001 2.121875e-001 2.688555e+000 178 189 195
1.674792e-001 -4.817710e-001 3.230474e+000 142 131 112
-1.077647e-002 -5.065473e-001 3.295408e+000 126 111 93
3.031829e-002 -5.066962e-001 3.287694e+000 47 36 22
1.643790e-001 -5.609183e-001 3.368127e+000 40 31 16
4.895709e-001 -5.244906e-001 3.275185e+000 135 119 100
3.511629e-002 -6.096744e-001 3.473886e+000 43 29 18
3.511629e-002 -6.096744e-001 3.473886e+000 43 29 18
1.826144e-001 -6.061473e-001 3.451040e+000 36 25 14
1.982799e-001 -6.058865e-001 3.450636e+000 147 134 118
1.711880e-001 -6.101063e-001 3.459652e+000 122 106 91
1.711880e-001 -6.101063e-001 3.459652e+000 122 106 91
3.013929e-001 -6.037439e-001 3.425431e+000 39 29 11
3.013929e-001 -6.037439e-001 3.425431e+000 39 29 11
5.068611e-002 -6.299325e-001 3.507838e+000 39 26 11
5.068611e-002 -6.299325e-001 3.507838e+000 39 26 11
3.392947e-001 -5.981050e-001 3.419052e+000 48 30 15
1.896228e-001 -6.235801e-001 3.482852e+000 125 110 90
1.896228e-001 -6.235801e-001 3.482852e+000 125 110 90
2.581428e-001 -6.184936e-001 3.470179e+000 130 118 95
2.581428e-001 -6.184936e-001 3.470179e+000 130 118 95
3.856897e-001 -6.089790e-001 3.434051e+000 38 25 9
5.312699e-001 -5.929056e-001 3.391048e+000 131 122 106
4.385272e-001 -6.068984e-001 3.423070e+000 128 119 102
3.241408e-001 -6.230912e-001 3.467430e+000 40 30 19
3.764864e-001 -6.175205e-001 3.453280e+000 40 26 14
3.628424e-001 -6.216709e-001 3.457894e+000 47 34 18
3.628424e-001 -6.216709e-001 3.457894e+000 47 34 18
3.502909e-001 -6.265647e-001 3.462636e+000 52 40 28
3.166278e-001 -6.284562e-001 3.474353e+000 128 112 96
3.166278e-001 -6.284562e-001 3.474353e+000 128 112 96
4.673810e-001 -6.112153e-001 3.428323e+000 34 21 4
5.532001e-001 -6.029963e-001 3.404124e+000 49 34 15
3.802342e-001 -6.239328e-001 3.460908e+000 51 33 17
2.817099e-001 -6.374655e-001 3.497387e+000 45 32 16
7.475268e-002 -6.623351e-001 3.565025e+000 38 24 11
2.063068e-001 -6.479533e-001 3.524387e+000 122 110 90
2.565941e-001 -6.463854e-001 3.513860e+000 51 39 25
2.400000e-001 -5.020765e-001 3.744336e+000 48 42 32
4.245470e-001 -2.592308e-001 3.808947e+000 145 146 132
3.985498e-001 -1.858900e-001 3.860647e+000 61 59 46
3.384503e-001 1.193188e-001 4.057802e+000 159 151 132
2.156981e-001 1.907818e-001 4.150164e+000 156 148 127
6.820641e-001 -3.273437e-001 2.463385e+000 173 188 196
6.990490e-001 -2.916541e-001 2.474356e+000 189 206 216
4.017704e-001 -3.054280e-001 2.577415e+000 101 120 131
1.067925e+000 -1.666169e-001 2.449075e+000 179 188 192
8.867257e-001 -8.137748e-002 2.533100e+000 133 146 152
8.536265e-001 1.341259e-001 2.661017e+000 128 138 147
-8.928735e-003 -3.775850e-001 3.070864e+000 127 118 101
9.273232e-001 1.566168e-001 2.659878e+000 183 194 200
8.439111e-001 2.096925e-001 2.701589e+000 119 128 137
7.782620e-001 1.955346e-001 2.724132e+000 152 161 170
7.782620e-001 1.955346e-001 2.724132e+000 152 161 170
7.892725e-001 2.063087e-001 2.729936e+000 163 173 182
1.773866e-001 -4.498715e-001 3.173608e+000 135 122 105
1.094001e-001 -4.583734e-001 3.199260e+000 60 47 28
9.006149e-002 -4.621897e-001 3.206685e+000 61 48 30
9.006149e-002 -4.621897e-001 3.206685e+000 61 48 30
4.235486e-003 -5.040094e-001 3.284510e+000 46 35 17
2.390180e-001 -4.776974e-001 3.215141e+000 59 43 25
1.084435e-001 -4.955519e-001 3.259940e+000 57 46 32
5.457485e-001 -4.526346e-001 3.142683e+000 134 120 98
5.457485e-001 -4.526346e-001 3.142683e+000 134 120 98
2.545851e-001 -5.140272e-001 3.275264e+000 52 36 15
2.545851e-001 -5.140272e-001 3.275264e+000 52 36 15
1.167561e-002 -5.387856e-001 3.350874e+000 137 124 107
1.183778e-001 -5.329177e-001 3.325744e+000 121 112 97
3.234524e-001 -5.163838e-001 3.275683e+000 116 103 85
3.279378e-001 -5.206187e-001 3.281135e+000 49 35 21
3.076013e-001 -5.384837e-001 3.301781e+000 55 42 24
3.551597e-001 -5.287780e-001 3.292035e+000 45 32 17
2.862841e-002 -5.777466e-001 3.416520e+000 132 121 104
3.129615e-001 -5.470148e-001 3.329535e+000 51 37 23
4.739138e-001 -5.384257e-001 3.298660e+000 124 115 96
3.206572e-001 -5.609971e-001 3.353581e+000 37 24 7
1.723096e-001 -5.892682e-001 3.419970e+000 45 33 16
1.791361e-001 -5.948855e-001 3.429200e+000 116 105 87
3.806047e-002 -6.136085e-001 3.479215e+000 132 121 102
3.277473e-001 -5.839666e-001 3.395467e+000 56 38 20
2.949084e-001 -5.941779e-001 3.418161e+000 45 31 11
1.887589e-001 -6.080659e-001 3.452891e+000 128 115 99
1.887475e-001 -6.076919e-001 3.452874e+000 128 115 99
2.780737e-001 -5.979691e-001 3.425352e+000 24 10 0
2.045487e-001 -6.057589e-001 3.450455e+000 42 27 8
1.654557e-001 -6.126079e-001 3.464483e+000 45 29 12
3.216993e-001 -5.980314e-001 3.418500e+000 44 27 10
3.216993e-001 -5.980314e-001 3.418500e+000 44 27 10
1.873195e-001 -6.139284e-001 3.465361e+000 41 29 17
3.270116e-001 -6.003254e-001 3.424049e+000 45 26 13
6.861791e-002 -6.311347e-001 3.506785e+000 37 24 11
1.938611e-001 -6.201981e-001 3.470963e+000 137 125 109
1.934398e-001 -6.184027e-001 3.470941e+000 137 125 109
6.036035e-002 -6.365534e-001 3.517467e+000 139 127 107
5.359974e-001 -5.804566e-001 3.368140e+000 43 34 18
5.359974e-001 -5.804566e-001 3.368140e+000 43 34 18
6.882150e-002 -6.359337e-001 3.518854e+000 133 120 103
3.731944e-001 -6.042301e-001 3.424399e+000 40 30 12
7.513118e-002 -6.382462e-001 3.521273e+000 44 31 13
2.561320e-001 -6.195222e-001 3.465251e+000 40 27 18
2.477449e-001 -6.192257e-001 3.468317e+000 45 32 15
5.233865e-001 -5.895711e-001 3.381766e+000 39 27 13
3.537608e-001 -6.090549e-001 3.436174e+000 128 113 92
4.125373e-001 -6.014138e-001 3.419639e+000 41 24 14
2.111921e-001 -6.269184e-001 3.485716e+000 127 115 96
8.142347e-002 -6.420789e-001 3.526752e+000 42 27 20
7.280100e-002 -6.425711e-001 3.529841e+000 46 35 23
7.280100e-002 -6.425711e-001 3.529841e+000 46 35 23
1.916373e-001 -6.293535e-001 3.492509e+000 139 128 107
3.911261e-001 -6.142191e-001 3.439517e+000 33 20 2
2.656235e-001 -6.211598e-001 3.478398e+000 30 17 1
2.656235e-001 -6.211598e-001 3.478398e+000 30 17 1
4.824531e-001 -6.075755e-001 3.412288e+000 39 26 10
1.914757e-001 -6.346210e-001 3.504760e+000 41 29 10
1.914757e-001 -6.346210e-001 3.504760e+000 41 29 10
5.508838e-001 -5.997770e-001 3.398227e+000 37 25 9
5.327589e-001 -6.033034e-001 3.404528e+000 49 37 22
8.826809e-002 -6.542898e-001 3.549902e+000 32 18 9
8.831069e-002 -6.543252e-001 3.549873e+000 32 18 9
4.493716e-001 -6.137384e-001 3.434466e+000 44 31 18
4.307271e-001 -6.150483e-001 3.441389e+000 124 112 91
9.566887e-002 -6.566485e-001 3.552415e+000 125 111 98
9.007990e-002 -6.582772e-001 3.554823e+000 114 101 84
4.979072e-001 -6.097519e-001 3.425800e+000 51 34 16
3.173279e-001 -6.325700e-001 3.484769e+000 139 125 106
1.588606e-001 -7.045442e-001 3.653121e+000 60 46 27
-6.519601e-002 -5.819063e-001 3.805336e+000 25 19 8
4.076368e-001 -4.214336e-001 3.721430e+000 149 146 131
2.861721e-001 -2.833083e-001 3.848325e+000 143 139 120
3.801668e-001 -2.588173e-001 3.824565e+000 157 150 134
7.455995e-002 -1.860469e-001 3.993048e+000 152 147 128
-1.657171e-001 2.447661e-001 2.289222e+000 181 164 141
-6.156523e-002 9.019508e-001 3.119315e+000 152 139 120
-5.229982e-002 8.821789e-001 3.108799e+000 150 138 122
-4.979370e-002 8.732298e-001 3.099583e+000 146 135 120
-5.542589e-002 8.873986e-001 3.110392e+000 70 62 47
-6.245757e-002 8.976771e-001 3.111021e+000 157 140 120
-4.118122e-002 8.638962e-001 3.102549e+000 82 66 49
-5.112938e-002 8.929400e-001 3.129116e+000 79 65 45
-5.112938e-002 8.929400e-001 3.129116e+000 79 65 45
-5.726547e-002 8.958954e-001 3.119622e+000 74 67 50
-5.670391e-002 8.824351e-001 3.098666e+000 156 145 130
-5.670391e-002 8.824351e-001 3.098666e+000 156 145 130
-8.658213e-002 8.963687e-001 3.056591e+000 73 58 39
-8.658213e-002 8.963687e-001 3.056591e+000 73 58 39
-9.620048e-002 9.047074e-001 3.049558e+000 73 57 40
-9.620048e-002 9.047074e-001 3.049558e+000 73 57 40
-1.526149e-001 1.111089e+000 2.960786e+000 47 34 16
1.958189e-001 -3.199112e-001 2.954921e+000 134 116 92
7.786512e-002 -6.735009e-001 3.542716e+000 101 86 68
6.794578e-001 -4.543043e-001 2.407826e+000 196 209 217
2.367157e-001 -2.155982e-001 2.693389e+000 160 173 181
7.044338e-001 -2.403689e-001 2.497683e+000 201 214 222
1.458768e-001 -6.184672e-001 3.474495e+000 124 104 79
5.330056e-001 -5.910618e-001 3.390720e+000 126 117 100
4.530220e-001 -3.439970e-001 2.539521e+000 130 150 157
3.818533e-001 -3.991297e-001 3.055730e+000 103 95 77
6.216712e-002 -5.742969e-001 3.386342e+000 114 94 67
5.056107e-001 -3.284382e-001 2.523645e+000 197 210 218
2.998675e-001 -1.846993e-001 2.682818e+000 180 192 200
6.021471e-002 -4.183997e-001 3.130921e+000 129 113 88
-7.959067e-002 -4.452595e-001 3.194731e+000 128 111 85
6.265187e-002 -4.611074e-001 3.203611e+000 124 107 81
2.368088e-001 -6.414314e-001 3.507394e+000 120 101 76
9.225448e-001 -5.954665e-001 3.381929e+000 145 130 106
8.226823e-002 -2.512010e-001 2.843044e+000 133 117 92
1.383988e-002 -2.634809e-001 2.869322e+000 133 119 93
2.222445e-002 -2.809103e-001 2.893517e+000 133 124 103
-1.276752e-001 -3.022376e-001 2.965784e+000 138 120 96
4.479268e-002 -4.727453e-001 3.215615e+000 76 66 52
1.803095e-001 -4.644011e-001 3.187447e+000 125 108 82
1.097831e-001 -4.709258e-001 3.211980e+000 124 107 81
2.011393e-001 -4.965071e-001 3.228389e+000 48 33 17
2.224528e-002 -5.273605e-001 3.333949e+000 125 108 80
4.559182e-001 -5.433316e-001 3.307093e+000 124 109 82
4.559182e-001 -5.433316e-001 3.307093e+000 124 109 82
1.071348e-001 -6.699025e-001 3.573239e+000 63 55 36
7.429595e-001 -6.178569e-001 3.434599e+000 148 133 110
7.226022e-001 -6.230035e-001 3.440116e+000 145 129 104
8.977176e-001 -5.956733e-001 3.389782e+000 153 139 113
1.198310e-001 -7.023109e-001 3.662484e+000 132 121 101
4.691338e-001 -3.738201e-001 2.512153e+000 199 214 221
1.885590e-001 -2.719611e-001 2.690820e+000 190 201 210
-1.571107e-001 -3.296421e-001 3.004301e+000 135 119 96
3.021813e-001 -3.561120e-001 2.986308e+000 52 46 36
-7.213025e-002 -4.523831e-001 3.206410e+000 134 114 87
2.640952e-001 -4.618834e-001 3.189150e+000 129 109 81
2.098323e-001 -4.669583e-001 3.208756e+000 127 108 83
1.541330e-001 -5.280255e-001 3.312761e+000 123 107 81
3.256514e-001 -5.368846e-001 3.311446e+000 117 100 71
2.533998e-001 -5.525036e-001 3.339169e+000 118 98 74
2.536192e-001 -5.745308e-001 3.375307e+000 117 100 75
4.175211e-001 -5.588435e-001 3.340085e+000 123 107 80
4.175211e-001 -5.588435e-001 3.340085e+000 123 107 80
2.286313e-001 -5.852982e-001 3.404494e+000 120 101 75
3.256883e-001 -5.938826e-001 3.406638e+000 122 102 75
2.300649e-001 -6.242663e-001 3.486443e+000 120 102 75
2.558149e-001 -6.285251e-001 3.484237e+000 116 99 71
5.641457e-001 -6.034794e-001 3.402735e+000 121 104 77
4.868022e-001 -6.116645e-001 3.430800e+000 118 101 76
4.868022e-001 -6.116645e-001 3.430800e+000 118 101 76
3.506608e-001 -6.317528e-001 3.479191e+000 115 97 73
3.506608e-001 -6.317528e-001 3.479191e+000 115 97 73
6.708707e-001 -6.288413e-001 3.457920e+000 147 132 107
3.837339e-001 -6.671074e-001 3.557145e+000 137 120 94
-5.111380e-002 -2.589439e-001 2.893965e+000 137 120 95
-1.623996e-001 -3.489132e-001 3.046663e+000 54 46 38
8.960489e-001 1.841397e-001 2.686058e+000 198 203 207
8.960489e-001 1.841397e-001 2.686058e+000 198 203 207
1.024772e+000 2.180154e-001 2.690420e+000 202 209 215
1.731563e-001 -3.898397e-001 3.055477e+000 125 113 99
-1.172651e-001 -4.152782e-001 3.148406e+000 50 48 36
4.895267e-001 -3.454475e-001 2.971905e+000 134 116 92
6.351178e-002 -4.092239e-001 3.115121e+000 125 107 85
2.439781e-001 -4.017727e-001 3.081905e+000 127 113 87
4.583291e-001 -4.325418e-001 3.119269e+000 127 111 80
4.703341e-001 -4.385851e-001 3.130721e+000 131 111 87
2.684727e-001 -4.718847e-001 3.197387e+000 129 109 84
2.684727e-001 -4.718847e-001 3.197387e+000 129 109 84
-5.173504e-002 -5.164106e-001 3.299205e+000 122 105 79
1.597372e-002 -5.040308e-001 3.282542e+000 121 103 75
4.479209e-001 -4.579755e-001 3.159367e+000 130 112 84
4.748393e-001 -4.546408e-001 3.151209e+000 130 113 88
1.129519e-001 -5.115284e-001 3.287498e+000 121 113 91
1.129519e-001 -5.115284e-001 3.287498e+000 121 113 91
-4.820475e-002 -5.319316e-001 3.339995e+000 49 40 29
1.050604e-001 -5.177821e-001 3.297773e+000 119 102 77
1.050604e-001 -5.177821e-001 3.297773e+000 119 102 77
1.892767e-001 -5.309416e-001 3.284565e+000 119 99 74
1.670430e-001 -5.374549e-001 3.334009e+000 123 107 82
1.670430e-001 -5.374549e-001 3.334009e+000 123 107 82
2.131336e-001 -5.397914e-001 3.329011e+000 105 86 59
3.231136e-001 -5.360247e-001 3.303732e+000 116 99 72
3.231136e-001 -5.360247e-001 3.303732e+000 116 99 72
-6.127399e-003 -5.723525e-001 3.415844e+000 124 108 83
-6.127399e-003 -5.723525e-001 3.415844e+000 124 108 83
3.710871e-001 -5.404685e-001 3.299225e+000 124 104 77
2.927606e-001 -5.513233e-001 3.346242e+000 123 106 82
2.927606e-001 -5.513233e-001 3.346242e+000 123 106 82
3.354060e-001 -5.569059e-001 3.339471e+000 122 107 82
4.338201e-001 -5.492691e-001 3.320696e+000 121 104 73
4.338201e-001 -5.492691e-001 3.320696e+000 121 104 73
2.396429e-001 -5.729024e-001 3.385125e+000 50 41 28
2.396429e-001 -5.729024e-001 3.385125e+000 50 41 28
3.432864e-001 -5.627141e-001 3.355223e+000 120 105 76
3.040476e-001 -5.668566e-001 3.368716e+000 118 102 77
1.794110e-001 -5.885970e-001 3.417438e+000 41 33 21
1.794110e-001 -5.885970e-001 3.417438e+000 41 33 21
3.587667e-001 -6.005647e-001 3.420055e+000 118 100 77
5.492369e-001 -5.815737e-001 3.374542e+000 117 102 76
5.492369e-001 -5.815737e-001 3.374542e+000 117 102 76
3.390401e-001 -6.107392e-001 3.445574e+000 123 106 81
3.480453e-001 -6.110560e-001 3.443393e+000 122 106 80
4.888588e-002 -6.483432e-001 3.547147e+000 118 101 76
4.888588e-002 -6.483432e-001 3.547147e+000 118 101 76
5.450915e-002 -6.571542e-001 3.557571e+000 129 108 87
2.036062e-001 -6.395678e-001 3.512241e+000 39 32 18
3.783747e-001 -6.263705e-001 3.471353e+000 116 99 71
3.783747e-001 -6.263705e-001 3.471353e+000 116 99 71
3.618812e-001 -6.303550e-001 3.477088e+000 120 104 78
5.900404e-002 -6.765960e-001 3.590982e+000 53 45 34
6.425521e-001 -4.148903e-001 2.415392e+000 195 208 216
7.241481e-001 -3.736983e-001 2.404849e+000 196 209 217
7.141759e-001 -3.186357e-001 2.444844e+000 196 209 217
3.884490e-001 -3.345214e-001 2.562372e+000 187 201 210
3.884490e-001 -3.345214e-001 2.562372e+000 187 201 210
4.172529e-001 -3.245993e-001 2.557137e+000 185 198 206
8.754977e-001 -1.239880e-001 2.506846e+000 189 198 205
8.754977e-001 -1.239880e-001 2.506846e+000 189 198 205
9.004791e-001 -1.115666e-001 2.509907e+000 190 198 204
-4.403738e-002 -2.267524e-001 2.812837e+000 168 177 186
5.940122e-005 -2.211377e-001 2.799648e+000 148 163 170
4.766058e-001 -1.949506e-001 2.712874e+000 139 124 104
4.857467e-001 -2.069723e-001 2.731017e+000 135 123 104
4.020414e-001 -2.205865e-001 2.758149e+000 137 121 97
3.865713e-001 -2.173863e-001 2.763719e+000 138 123 100
-4.698321e-002 -3.478966e-001 3.029556e+000 131 116 95
-4.698321e-002 -3.478966e-001 3.029556e+000 131 116 95
-5.066066e-002 -3.690694e-001 3.069937e+000 133 117 94
6.531040e-001 -3.047659e-001 2.868288e+000 57 54 42
5.612342e-001 -3.176147e-001 2.907331e+000 135 119 96
5.612342e-001 -3.176147e-001 2.907331e+000 135 119 96
4.030215e-001 -3.405382e-001 2.956266e+000 129 113 88
3.020831e-001 -3.568738e-001 2.988714e+000 57 51 39
5.797055e-001 -3.174892e-001 2.903873e+000 128 109 85
5.323961e-001 -3.232570e-001 2.919116e+000 132 117 93
-7.519923e-002 -3.928961e-001 3.111184e+000 126 111 92
3.415425e-001 -3.515910e-001 2.983496e+000 129 117 88
8.939619e-002 -3.954769e-001 3.091205e+000 125 110 88
8.939619e-002 -3.954769e-001 3.091205e+000 125 110 88
-6.627395e-002 -4.142450e-001 3.151954e+000 127 110 89
4.000358e-001 -3.847918e-001 3.046101e+000 132 115 89
4.570382e-002 -4.475211e-001 3.190660e+000 121 107 81
5.527362e-002 -4.645790e-001 3.201969e+000 124 108 83
4.094931e-001 -4.487997e-001 3.149649e+000 129 112 84
2.764355e-001 -4.804216e-001 3.207559e+000 125 106 79
2.764355e-001 -4.804216e-001 3.207559e+000 125 106 79
3.584745e-001 -4.713268e-001 3.184041e+000 62 55 39
2.817897e-001 -4.804388e-001 3.216277e+000 116 99 74
1.091630e-001 -5.079578e-001 3.276225e+000 114 97 73
9.540307e-002 -5.114662e-001 3.282123e+000 120 104 79
2.440902e-003 -5.413571e-001 3.351286e+000 118 101 81
2.440902e-003 -5.413571e-001 3.351286e+000 118 101 81
2.440902e-003 -5.413571e-001 3.351286e+000 118 101 81
1.734958e-001 -5.329634e-001 3.320535e+000 47 36 31
1.836856e-001 -5.322087e-001 3.325741e+000 118 98 74
3.612968e-001 -5.205794e-001 3.279224e+000 59 48 33
4.709023e-001 -5.258787e-001 3.284397e+000 120 102 77
4.578536e-001 -5.279626e-001 3.288507e+000 120 104 78
5.002952e-001 -5.423471e-001 3.303224e+000 50 46 31
4.765443e-001 -5.442637e-001 3.311422e+000 55 46 32
2.849783e-001 -5.796826e-001 3.388379e+000 121 105 82
2.849783e-001 -5.796826e-001 3.388379e+000 121 105 82
1.591122e-001 -5.959559e-001 3.432987e+000 122 103 79
1.591122e-001 -5.959559e-001 3.432987e+000 122 103 79
3.667799e-001 -5.723467e-001 3.377378e+000 121 101 76
2.279136e-001 -5.926911e-001 3.425231e+000 122 105 77
3.629967e-001 -5.792169e-001 3.385316e+000 40 31 21
4.044971e-002 -6.213793e-001 3.491476e+000 123 106 80
2.618956e-001 -5.987901e-001 3.430307e+000 127 110 85
3.691196e-001 -5.872087e-001 3.400465e+000 120 100 74
3.691196e-001 -5.872087e-001 3.400465e+000 120 100 74
3.304437e-001 -5.989226e-001 3.416867e+000 117 99 75
2.365287e-001 -6.047376e-001 3.447844e+000 119 99 72
2.612069e-001 -6.135345e-001 3.456180e+000 122 102 78
8.224859e-002 -6.353217e-001 3.518123e+000 113 96 71
4.634546e-001 -5.912374e-001 3.401357e+000 119 104 80
3.774521e-001 -6.041187e-001 3.431271e+000 117 101 78
3.737570e-002 -6.471521e-001 3.541964e+000 46 37 27
4.252149e-001 -6.038497e-001 3.423429e+000 117 103 77
2.128262e-001 -6.332512e-001 3.497500e+000 118 101 75
2.128262e-001 -6.332512e-001 3.497500e+000 118 101 75
1.984712e-001 -6.347632e-001 3.503205e+000 115 98 73
4.966058e-001 -6.019126e-001 3.412713e+000 48 39 28
4.306111e-001 -6.099271e-001 3.435419e+000 116 101 75
4.583591e-001 -6.101214e-001 3.432777e+000 47 37 21
4.583591e-001 -6.101214e-001 3.432777e+000 47 37 21
1.966982e-001 -6.433023e-001 3.518643e+000 113 96 71
2.113859e-001 -6.464609e-001 3.520493e+000 111 96 70
2.113859e-001 -6.464609e-001 3.520493e+000 111 96 70
5.412335e-001 -6.068249e-001 3.415771e+000 120 103 73
5.412335e-001 -6.068249e-001 3.415771e+000 120 103 73
7.326694e-002 -6.721008e-001 3.579464e+000 119 102 79
7.078074e-001 -3.360186e-001 2.439828e+000 194 207 215
7.019898e-001 -3.154754e-001 2.450348e+000 190 203 211
4.774131e-001 -3.535871e-001 2.524576e+000 191 208 216
6.952461e-001 -1.769046e-001 2.542098e+000 199 212 221
2.727425e-001 -2.204359e-001 2.682385e+000 146 159 167
4.757728e-001 -1.850299e-001 2.695609e+000 73 64 51
3.961831e-001 -2.055269e-001 2.732712e+000 142 129 110
-4.347855e-002 -2.591965e-001 2.883373e+000 64 55 42
1.664829e-001 -2.503660e-001 2.839491e+000 132 119 103
1.515416e-001 -2.552775e-001 2.845078e+000 126 110 94
6.981212e-002 -2.892397e-001 2.914283e+000 66 54 40
8.903906e-001 1.476799e-001 2.670397e+000 83 90 96
-3.387921e-002 -3.442454e-001 3.021418e+000 125 112 89
-1.543569e-002 -3.439159e-001 3.018154e+000 119 107 88
9.301877e-001 1.936327e-001 2.682652e+000 197 206 213
6.157547e-002 -3.594544e-001 3.029120e+000 135 122 103
-1.435140e-002 -3.642347e-001 3.055740e+000 127 114 92
4.575530e-001 -3.247857e-001 2.929499e+000 122 108 87
-5.861397e-002 -3.853988e-001 3.089834e+000 125 112 95
5.513885e-001 -3.200451e-001 2.904088e+000 59 51 38
3.712821e-001 -3.438185e-001 2.964043e+000 49 46 37
6.363748e-001 -3.101344e-001 2.886063e+000 128 112 97
5.690669e-001 -3.176191e-001 2.907431e+000 128 114 91
4.741854e-001 -3.307787e-001 2.938814e+000 122 109 86
5.061291e-001 -3.419750e-001 2.948234e+000 124 111 94
6.514454e-001 -3.211267e-001 2.904165e+000 128 115 95
1.895223e-001 -3.854660e-001 3.057522e+000 128 114 88
4.558189e-001 -3.525432e-001 2.980981e+000 124 111 91
1.144950e-001 -4.039231e-001 3.099645e+000 118 106 87
-6.385206e-002 -4.215247e-001 3.152516e+000 127 110 90
2.831950e-001 -3.994160e-001 3.069302e+000 128 113 90
3.953340e-001 -3.779988e-001 3.038316e+000 128 112 88
2.935776e-002 -4.289996e-001 3.154797e+000 122 109 90
-2.555106e-001 -4.512784e-001 3.247298e+000 122 64 63
2.782429e-001 -4.072375e-001 3.085009e+000 125 113 91
3.440818e-001 -4.049285e-001 3.073366e+000 125 110 91
3.440818e-001 -4.049285e-001 3.073366e+000 125 110 91
-2.693153e-003 -4.453847e-001 3.183573e+000 58 46 30
4.519274e-001 -4.341324e-001 3.119309e+000 131 113 89
4.636873e-001 -4.376458e-001 3.126936e+000 131 115 89
3.001022e-001 -4.671978e-001 3.189371e+000 125 108 80
1.754696e-001 -4.896498e-001 3.233413e+000 44 32 18
4.168130e-001 -4.568247e-001 3.158988e+000 123 108 76
1.995272e-001 -4.872088e-001 3.234620e+000 117 101 75
5.540859e-002 -5.066912e-001 3.286538e+000 47 33 20
-3.511415e-002 -5.169808e-001 3.319446e+000 47 34 20
-1.225367e-002 -5.361297e-001 3.356730e+000 113 100 81
5.754463e-001 -4.738711e-001 3.193430e+000 53 49 38
2.801888e-001 -5.247917e-001 3.289685e+000 120 105 79
3.153058e-001 -5.224923e-001 3.287082e+000 53 41 29
1.385296e-001 -5.499059e-001 3.353707e+000 46 36 27
1.438714e-001 -5.564602e-001 3.364614e+000 48 38 28
3.613824e-001 -5.307276e-001 3.295518e+000 56 42 34
1.969214e-002 -5.829889e-001 3.426090e+000 113 101 78
3.775805e-001 -5.418639e-001 3.314197e+000 117 99 78
4.186930e-001 -5.383859e-001 3.315557e+000 118 105 79
3.430007e-001 -5.577847e-001 3.345454e+000 120 104 79
3.098662e-001 -5.637350e-001 3.357968e+000 45 33 19
3.453029e-002 -6.033140e-001 3.453838e+000 119 104 81
3.453029e-002 -6.033140e-001 3.453838e+000 119 104 81
3.863850e-002 -6.037115e-001 3.466980e+000 115 97 73
2.408190e-001 -5.918930e-001 3.418908e+000 118 101 76
3.355647e-001 -5.906425e-001 3.410046e+000 48 39 20
5.673398e-002 -6.409669e-001 3.521406e+000 52 44 31
6.106421e-002 -6.410029e-001 3.527670e+000 111 96 73
6.106421e-002 -6.410029e-001 3.527670e+000 111 96 73
4.322368e-001 -5.944279e-001 3.411251e+000 113 102 77
4.801590e-001 -5.931354e-001 3.403857e+000 113 97 71
5.172991e-001 -5.944015e-001 3.393546e+000 42 32 20
6.063690e-002 -6.484911e-001 3.544444e+000 35 22 9
4.532967e-001 -6.048422e-001 3.421048e+000 51 39 25
4.505669e-001 -6.063339e-001 3.427967e+000 120 105 81
4.505669e-001 -6.063339e-001 3.427967e+000 120 105 81
3.954558e-001 -6.163512e-001 3.445962e+000 48 35 24
2.751786e-001 -6.323168e-001 3.487152e+000 45 35 23
3.992808e-001 -6.184736e-001 3.451193e+000 115 100 74
3.436493e-001 -6.198986e-001 3.469295e+000 111 96 73
1.916534e-001 -6.465493e-001 3.524808e+000 46 34 20
3.156864e-001 -6.386014e-001 3.495521e+000 120 101 77
2.089779e-001 -6.486890e-001 3.530113e+000 38 28 14
6.473787e-001 -3.791922e-001 2.434699e+000 196 213 223
7.216179e-001 -3.605851e-001 2.417403e+000 198 210 222
6.278517e-001 -3.673601e-001 2.446542e+000 76 94 102
6.327816e-001 -3.603349e-001 2.450845e+000 193 209 218
6.327816e-001 -3.603349e-001 2.450845e+000 193 209 218
7.458003e-001 -3.296453e-001 2.428514e+000 201 216 223
6.382542e-001 -3.243926e-001 2.466813e+000 189 206 214
4.629638e-001 -3.559951e-001 2.526470e+000 189 203 212
4.481935e-001 -3.574749e-001 2.531556e+000 188 205 213
7.117261e-001 -3.067815e-001 2.454078e+000 65 83 91
6.548412e-001 -3.085219e-001 2.471361e+000 186 199 208
6.331625e-001 -2.966134e-001 2.487279e+000 196 210 219
6.969014e-001 -2.918588e-001 2.469865e+000 53 67 76
4.633415e-001 -3.268174e-001 2.543406e+000 184 200 208
4.870302e-001 -3.179947e-001 2.541210e+000 192 206 216
4.870302e-001 -3.179947e-001 2.541210e+000 192 206 216
2.864239e-001 -2.876154e-001 2.635915e+000 191 205 214
1.068704e-001 -2.984554e-001 2.715184e+000 183 196 205
1.708518e-001 -2.716970e-001 2.700764e+000 180 193 202
9.146384e-001 -1.024632e-001 2.512687e+000 190 201 207
4.491126e-001 -1.906515e-001 2.703503e+000 68 60 43
4.341985e-001 -1.909032e-001 2.712124e+000 82 75 57
1.681230e-001 -2.319942e-001 2.806418e+000 71 59 44
1.964803e-001 -2.274302e-001 2.798473e+000 68 57 42
1.964803e-001 -2.274302e-001 2.798473e+000 68 57 42
1.467703e-001 -2.302868e-001 2.814545e+000 60 51 35
3.384770e-002 -2.464365e-001 2.861313e+000 129 118 98
-6.320637e-002 -2.661396e-001 2.894182e+000 70 57 40
-8.421375e-002 -2.659536e-001 2.900933e+000 69 56 40
-8.421375e-002 -2.659536e-001 2.900933e+000 69 56 40
4.948523e-001 -2.079762e-001 2.726950e+000 134 123 102
4.948523e-001 -2.079762e-001 2.726950e+000 134 123 102
4.660165e-001 -2.092849e-001 2.736365e+000 136 125 103
2.054247e-002 -2.660379e-001 2.884126e+000 55 46 32
-8.930147e-002 -2.857650e-001 2.923325e+000 64 58 44
5.970540e-002 -2.705417e-001 2.880448e+000 130 118 99
5.970540e-002 -2.705417e-001 2.880448e+000 130 118 99
-1.418407e-001 -2.951302e-001 2.945088e+000 131 122 105
-8.638861e-002 -3.281792e-001 3.001431e+000 134 119 97
-1.166435e-001 -3.409522e-001 3.025200e+000 131 116 100
-8.197713e-002 -3.289301e-001 3.013117e+000 118 107 85
-7.721776e-002 -3.355523e-001 3.023486e+000 127 114 97
1.036280e+000 1.160410e-001 2.629343e+000 195 204 209
-3.445375e-002 -3.448569e-001 3.021375e+000 127 114 94
2.179623e-003 -3.412756e-001 3.010687e+000 129 114 95
1.080596e-001 -3.423439e-001 2.997005e+000 72 56 40
-9.450740e-002 -3.671173e-001 3.064424e+000 129 117 97
5.199872e-002 -3.586009e-001 3.029495e+000 125 109 93
-4.867041e-003 -3.660754e-001 3.061480e+000 126 112 93
4.979314e-001 -3.240379e-001 2.922967e+000 51 43 28
3.852271e-001 -3.419995e-001 2.961233e+000 58 50 36
3.852271e-001 -3.419995e-001 2.961233e+000 58 50 36
6.081381e-002 -3.780067e-001 3.065718e+000 125 112 95
2.027902e-001 -3.651997e-001 3.022897e+000 135 120 99
3.811371e-001 -3.412318e-001 2.967402e+000 129 112 92
2.163462e-001 -3.732157e-001 3.037217e+000 69 52 30
5.024935e-002 -3.979560e-001 3.096379e+000 122 109 90
4.267375e-001 -3.543162e-001 2.983900e+000 124 111 93
3.674694e-001 -3.633597e-001 3.004187e+000 130 117 100
1.789742e-001 -3.887421e-001 3.065201e+000 134 120 99
7.215234e-002 -4.008773e-001 3.103270e+000 124 111 92
-3.013897e-002 -4.120656e-001 3.137330e+000 136 123 103
2.331056e-001 -3.978543e-001 3.077732e+000 49 38 21
1.848900e-001 -4.100482e-001 3.098978e+000 126 111 88
2.092658e-001 -4.065268e-001 3.092743e+000 138 125 106
4.033515e-002 -4.284193e-001 3.150881e+000 117 106 86
4.033515e-002 -4.284193e-001 3.150881e+000 117 106 86
3.168734e-001 -4.037217e-001 3.071904e+000 53 42 30
2.988028e-001 -4.024780e-001 3.076711e+000 123 112 94
-5.359041e-002 -4.558628e-001 3.215272e+000 59 45 31
7.984942e-003 -4.551114e-001 3.203494e+000 126 112 95
-2.586020e-002 -4.621069e-001 3.215282e+000 127 115 90
1.217021e-001 -4.510528e-001 3.174026e+000 129 116 100
-3.040962e-002 -4.812921e-001 3.248637e+000 45 32 17
3.595793e-001 -4.429990e-001 3.142192e+000 48 38 23
3.595793e-001 -4.429990e-001 3.142192e+000 48 38 23
-2.269562e-002 -4.979276e-001 3.280520e+000 135 117 94
1.002116e-001 -4.844995e-001 3.242895e+000 44 33 17
2.520457e-001 -4.664901e-001 3.194897e+000 45 32 14
2.520457e-001 -4.664901e-001 3.194897e+000 45 32 14
1.856578e-001 -4.749364e-001 3.218196e+000 42 29 15
1.081756e-001 -4.893609e-001 3.245832e+000 121 109 85
3.796068e-001 -4.561368e-001 3.162387e+000 66 50 28
3.796068e-001 -4.561368e-001 3.162387e+000 66 50 28
2.234478e-001 -4.753746e-001 3.213345e+000 62 45 25
4.778977e-001 -4.442358e-001 3.135119e+000 52 36 21
-2.654458e-002 -5.117274e-001 3.304062e+000 45 31 18
4.362009e-001 -4.598343e-001 3.161507e+000 51 39 19
4.617044e-001 -4.584892e-001 3.159190e+000 138 122 95
3.574023e-001 -4.725047e-001 3.192731e+000 127 111 85
1.332766e-001 -5.207364e-001 3.296890e+000 47 34 18
1.071649e-001 -5.219991e-001 3.307719e+000 50 36 22
1.648403e-001 -5.257032e-001 3.297200e+000 43 34 23
1.385243e-001 -5.253723e-001 3.313727e+000 47 37 23
1.117837e-001 -5.295809e-001 3.322648e+000 43 34 18
-4.007479e-003 -5.490090e-001 3.368750e+000 130 118 95
1.162548e-001 -5.387853e-001 3.331296e+000 45 36 21
3.224917e-001 -5.149133e-001 3.269676e+000 51 42 27
1.354541e-001 -5.440746e-001 3.345664e+000 41 30 15
3.632141e-001 -5.290499e-001 3.284118e+000 50 37 20
3.110977e-002 -5.660795e-001 3.394861e+000 120 106 87
3.110977e-002 -5.660795e-001 3.394861e+000 120 106 87
2.164538e-002 -5.686791e-001 3.398215e+000 117 106 86
2.813898e-002 -5.697211e-001 3.401168e+000 41 31 26
1.266929e-002 -5.731614e-001 3.407644e+000 126 114 88
3.495363e-002 -5.721719e-001 3.403684e+000 108 97 78
2.477937e-002 -5.736853e-001 3.407530e+000 125 114 94
1.076219e-002 -5.813649e-001 3.424253e+000 41 28 17
1.552899e-001 -5.651880e-001 3.378572e+000 100 90 70
5.040454e-002 -5.753775e-001 3.416438e+000 113 99 80
4.481899e-001 -5.298971e-001 3.289585e+000 115 98 72
4.886699e-001 -5.316529e-001 3.287636e+000 126 114 90
4.886699e-001 -5.316529e-001 3.287636e+000 126 114 90
5.316698e-002 -5.875190e-001 3.429233e+000 46 36 20
3.144516e-001 -5.617049e-001 3.351907e+000 128 115 92
3.144516e-001 -5.617049e-001 3.351907e+000 128 115 92
3.975288e-001 -5.521328e-001 3.327497e+000 48 33 16
3.548567e-001 -5.619281e-001 3.341547e+000 116 103 86
3.356680e-001 -5.588847e-001 3.349214e+000 50 35 15
3.356680e-001 -5.588847e-001 3.349214e+000 50 35 15
1.567928e-001 -5.797158e-001 3.406809e+000 58 48 34
1.567928e-001 -5.797158e-001 3.406809e+000 58 48 34
3.897597e-001 -5.522335e-001 3.332599e+000 39 28 9
3.897597e-001 -5.522335e-001 3.332599e+000 39 28 9
4.224561e-001 -5.546822e-001 3.331424e+000 48 34 18
1.762943e-001 -5.836692e-001 3.410769e+000 43 35 24
3.547158e-001 -5.656152e-001 3.354298e+000 59 44 26
2.515156e-001 -5.759588e-001 3.387597e+000 49 39 19
2.515156e-001 -5.759588e-001 3.387597e+000 49 39 19
1.888589e-001 -5.862087e-001 3.414602e+000 49 35 18
1.888589e-001 -5.862087e-001 3.414602e+000 49 35 18
3.701867e-001 -5.714006e-001 3.368069e+000 41 31 18
2.678853e-001 -5.883059e-001 3.409573e+000 120 103 78
1.822087e-001 -6.045184e-001 3.451280e+000 46 31 27
1.982440e-001 -6.053283e-001 3.450757e+000 127 113 94
2.918166e-001 -5.962808e-001 3.422702e+000 118 103 82
2.918166e-001 -5.962808e-001 3.422702e+000 118 103 82
3.623567e-001 -5.898631e-001 3.400238e+000 39 27 12
3.623567e-001 -5.898631e-001 3.400238e+000 39 27 12
2.439918e-001 -6.040065e-001 3.441251e+000 41 30 15
2.439918e-001 -6.040065e-001 3.441251e+000 41 30 15
2.501673e-001 -6.066055e-001 3.444982e+000 118 101 74
2.501673e-001 -6.066055e-001 3.444982e+000 118 101 74
2.888199e-001 -6.066028e-001 3.436624e+000 37 22 6
2.888199e-001 -6.066028e-001 3.436624e+000 37 22 6
2.483165e-001 -6.107236e-001 3.451049e+000 36 23 6
2.025463e-001 -6.178982e-001 3.467400e+000 103 88 69
5.112242e-001 -5.820574e-001 3.376722e+000 43 36 20
1.994926e-001 -6.212916e-001 3.479964e+000 121 109 86
1.994926e-001 -6.212916e-001 3.479964e+000 121 109 86
3.007192e-001 -6.119016e-001 3.449883e+000 47 34 20
3.007192e-001 -6.119016e-001 3.449883e+000 47 34 20
5.354370e-001 -5.831630e-001 3.373701e+000 131 118 99
5.138731e-001 -5.886102e-001 3.385603e+000 40 32 14
4.481634e-001 -5.960741e-001 3.409363e+000 41 29 16
4.546080e-001 -5.964188e-001 3.411120e+000 119 104 82
4.546080e-001 -5.964188e-001 3.411120e+000 119 104 82
4.448379e-001 -5.993690e-001 3.414327e+000 113 98 76
4.448379e-001 -5.993690e-001 3.414327e+000 113 98 76
3.282748e-001 -6.159460e-001 3.453886e+000 129 115 96
7.271975e-002 -6.491608e-001 3.538589e+000 35 21 12
4.464266e-001 -6.045217e-001 3.418115e+000 109 94 71
3.031877e-001 -6.214967e-001 3.470205e+000 36 24 11
1.852524e-001 -6.407493e-001 3.512967e+000 48 32 19
1.852524e-001 -6.407493e-001 3.512967e+000 48 32 19
8.176625e-002 -6.519381e-001 3.548221e+000 128 110 86
5.232120e-001 -5.997701e-001 3.408059e+000 36 27 11
7.872693e-002 -6.577316e-001 3.553050e+000 34 20 7
6.630840e-002 -6.586484e-001 3.557408e+000 48 33 20
4.673598e-001 -6.102481e-001 3.428550e+000 45 33 15
3.555587e-001 -6.238133e-001 3.465861e+000 123 108 91
1.061772e-001 -6.676481e-001 3.566033e+000 50 37 21
2.862731e-001 -6.439859e-001 3.512720e+000 48 42 28
3.006599e-001 -6.447279e-001 3.513023e+000 123 104 79
6.244084e-001 -4.491416e-001 2.405301e+000 50 70 79
6.548140e-001 -3.748321e-001 2.435328e+000 75 93 102
7.327871e-001 -3.396650e-001 2.426238e+000 61 89 93
7.425712e-001 -3.352040e-001 2.423972e+000 59 82 90
7.425712e-001 -3.352040e-001 2.423972e+000 59 82 90
4.866669e-001 -3.616949e-001 2.514573e+000 203 220 230
6.439101e-001 -3.159787e-001 2.466309e+000 48 65 73
7.218354e-001 -3.135675e-001 2.445649e+000 73 90 100
7.146607e-001 -2.888212e-001 2.463777e+000 197 211 220
7.146607e-001 -2.888212e-001 2.463777e+000 197 211 220
7.210112e-001 -2.835696e-001 2.462923e+000 68 81 90
4.834271e-001 -2.870801e-001 2.557972e+000 77 94 104
2.212332e-001 -3.132244e-001 2.654634e+000 59 77 85
2.290739e-001 -3.049358e-001 2.652726e+000 186 203 211
7.360285e-001 -1.690420e-001 2.526851e+000 201 216 223
6.231973e-002 -2.516489e-001 2.755565e+000 27 42 49
7.842725e-002 -2.106785e-001 2.775168e+000 157 167 176
3.208738e-001 -2.079914e-001 2.748484e+000 130 120 106
4.908601e-001 -2.003087e-001 2.714046e+000 145 137 119
4.908601e-001 -2.003087e-001 2.714046e+000 145 137 119
3.811101e-002 -2.558752e-001 2.853762e+000 56 47 31
-9.827097e-003 -2.531397e-001 2.868044e+000 57 45 29
-1.775266e-002 -2.583452e-001 2.879065e+000 130 122 105
-2.137433e-001 -2.788157e-001 2.939701e+000 63 55 42
3.374560e-001 -2.238073e-001 2.773119e+000 68 56 38
6.537351e-002 -2.568199e-001 2.857570e+000 140 127 111
1.034863e-001 -2.536122e-001 2.850085e+000 128 116 97
3.396470e-001 -2.280673e-001 2.780290e+000 135 124 100
8.225323e-002 -2.579560e-001 2.861900e+000 48 41 25
2.092785e-001 -2.457231e-001 2.827824e+000 68 54 39
-7.562221e-002 -2.808171e-001 2.919279e+000 74 61 42
-1.732327e-002 -2.768626e-001 2.907517e+000 132 117 96
-1.732327e-002 -2.768626e-001 2.907517e+000 132 117 96
2.105700e-002 -2.747977e-001 2.899530e+000 48 40 24
2.105700e-002 -2.747977e-001 2.899530e+000 48 40 24
-2.030069e-001 -3.013838e-001 2.969006e+000 133 123 105
-2.030069e-001 -3.013838e-001 2.969006e+000 133 123 105
-1.044233e-001 -2.929807e-001 2.942988e+000 133 120 101
-7.088609e-003 -3.020540e-001 2.944277e+000 136 124 104
-2.757728e-003 -3.082131e-001 2.951178e+000 136 125 107
-9.560354e-002 -3.202930e-001 2.988381e+000 55 46 29
-9.560354e-002 -3.202930e-001 2.988381e+000 55 46 29
-5.537245e-003 -3.157322e-001 2.970536e+000 133 119 100
-1.357931e-001 -3.337838e-001 3.017907e+000 129 116 97
9.138691e-001 1.219913e-001 2.646151e+000 192 199 207
8.720043e-001 1.315305e-001 2.657232e+000 186 196 205
8.928816e-001 1.347364e-001 2.655763e+000 185 194 201
-6.726914e-002 -3.408589e-001 3.015325e+000 133 122 101
5.957691e-002 -3.265804e-001 2.980827e+000 60 48 30
1.805835e-002 -3.344215e-001 2.994151e+000 49 39 22
1.805835e-002 -3.344215e-001 2.994151e+000 49 39 22
-1.091729e-002 -3.382551e-001 3.004441e+000 131 120 103
2.255418e-002 -3.413503e-001 3.010939e+000 130 118 102
-4.616440e-002 -3.532974e-001 3.038975e+000 56 43 25
-4.616440e-002 -3.532974e-001 3.038975e+000 56 43 25
-4.082309e-002 -3.529181e-001 3.042637e+000 139 128 112
-4.082309e-002 -3.529181e-001 3.042637e+000 139 128 112
-5.576009e-002 -3.580900e-001 3.050001e+000 47 35 17
-5.576009e-002 -3.580900e-001 3.050001e+000 47 35 17
-1.081307e-001 -3.674193e-001 3.069773e+000 53 41 25
-1.452562e-002 -3.548376e-001 3.041752e+000 127 116 99
9.255252e-001 1.992824e-001 2.689822e+000 75 85 94
7.822157e-002 -3.620755e-001 3.033228e+000 59 48 33
6.536765e-002 -3.760769e-001 3.063501e+000 131 118 101
5.210392e-001 -3.248969e-001 2.922326e+000 129 118 100
3.130302e-001 -3.490840e-001 2.987618e+000 54 46 27
5.373566e-002 -3.809241e-001 3.068251e+000 122 109 90
5.373566e-002 -3.809241e-001 3.068251e+000 122 109 90
-1.000874e-002 -3.866141e-001 3.089350e+000 125 112 94
-3.461857e-002 -3.897196e-001 3.098585e+000 127 112 94
-3.461857e-002 -3.897196e-001 3.098585e+000 127 112 94
-4.252714e-002 -3.919575e-001 3.101681e+000 131 116 97
5.885490e-001 -3.190461e-001 2.908755e+000 51 39 21
5.370816e-001 -3.258958e-001 2.925894e+000 58 50 32
3.357751e-001 -3.519599e-001 2.989709e+000 56 39 31
5.325856e-001 -3.279265e-001 2.929382e+000 118 107 89
6.549669e-001 -3.137552e-001 2.891292e+000 121 110 88
4.388160e-001 -3.397217e-001 2.959740e+000 126 116 100
2.135867e-001 -3.707703e-001 3.030945e+000 145 129 106
-9.437430e-002 -4.004641e-001 3.126556e+000 58 45 26
-3.079661e-002 -4.031507e-001 3.120121e+000 55 43 27
4.542856e-001 -3.447008e-001 2.970154e+000 129 119 103
4.154969e-001 -3.547424e-001 2.986870e+000 127 117 102
4.357846e-001 -3.526824e-001 2.980740e+000 131 118 101
4.357846e-001 -3.526824e-001 2.980740e+000 131 118 101
4.776008e-002 -3.993581e-001 3.102413e+000 52 40 24
5.876989e-001 -3.386037e-001 2.934387e+000 54 40 19
5.876989e-001 -3.386037e-001 2.934387e+000 54 40 19
3.857816e-001 -3.600118e-001 2.997594e+000 55 43 29
3.857816e-001 -3.600118e-001 2.997594e+000 55 43 29
3.792083e-002 -4.013312e-001 3.106670e+000 57 44 25
3.792083e-002 -4.013312e-001 3.106670e+000 57 44 25
5.987983e-001 -3.322007e-001 2.930753e+000 75 60 39
5.382359e-001 -3.465422e-001 2.953439e+000 52 43 25
6.776440e-002 -4.018816e-001 3.102538e+000 135 120 99
3.742560e-002 -4.069539e-001 3.112275e+000 123 109 83
1.722657e-001 -3.901393e-001 3.075400e+000 126 114 98
2.875668e-001 -3.846637e-001 3.042741e+000 56 43 24
2.401943e-001 -3.896443e-001 3.058769e+000 121 108 92
2.401943e-001 -3.896443e-001 3.058769e+000 121 108 92
2.571017e-001 -3.892090e-001 3.054992e+000 55 46 31
2.840007e-001 -3.849245e-001 3.048237e+000 137 127 110
2.238016e-001 -3.922524e-001 3.067075e+000 131 119 104
-3.915411e-002 -4.234469e-001 3.150016e+000 108 96 80
1.055817e-001 -4.074517e-001 3.105772e+000 118 109 92
2.902991e-001 -3.892942e-001 3.050498e+000 65 53 32
2.814983e-001 -3.869885e-001 3.053413e+000 51 42 25
-7.798832e-002 -4.270020e-001 3.166978e+000 45 29 13
-4.430313e-002 -4.280234e-001 3.161987e+000 131 122 104
1.471041e-001 -4.086445e-001 3.102518e+000 120 109 89
2.623072e-001 -3.947287e-001 3.067361e+000 53 42 25
1.762207e-001 -4.059015e-001 3.094513e+000 53 42 24
1.762207e-001 -4.059015e-001 3.094513e+000 53 42 24
-4.681085e-002 -4.298326e-001 3.167673e+000 44 32 16
-6.296513e-002 -4.372311e-001 3.174683e+000 46 38 19
-4.101983e-002 -4.326809e-001 3.170149e+000 134 123 106
2.161031e-001 -4.071550e-001 3.090595e+000 136 124 102
2.161031e-001 -4.071550e-001 3.090595e+000 136 124 102
3.461505e-001 -3.923492e-001 3.053002e+000 56 42 27
3.837562e-001 -3.870873e-001 3.042180e+000 127 116 102
3.837562e-001 -3.870873e-001 3.042180e+000 127 116 102
2.127801e-001 -4.081738e-001 3.097519e+000 51 38 18
-6.685234e-002 -4.409983e-001 3.188249e+000 128 113 90
4.238241e-002 -4.311525e-001 3.157202e+000 54 45 28
6.021738e-002 -4.341139e-001 3.157065e+000 58 49 31
2.927573e-001 -4.078988e-001 3.085930e+000 125 114 96
9.630165e-002 -4.307435e-001 3.148491e+000 52 40 24
1.388650e-001 -4.299468e-001 3.137885e+000 49 40 23
6.446022e-002 -4.375011e-001 3.161646e+000 63 54 39
2.241366e-001 -4.169224e-001 3.114403e+000 132 121 99
3.479248e-001 -4.065854e-001 3.079551e+000 59 48 30
2.140496e-001 -4.268040e-001 3.122541e+000 52 37 14
3.386212e-002 -4.436804e-001 3.178995e+000 44 32 15
-4.328267e-002 -4.525957e-001 3.204334e+000 42 28 14
1.117377e-001 -4.399803e-001 3.159096e+000 52 38 24
1.117377e-001 -4.399803e-001 3.159096e+000 52 38 24
9.835215e-002 -4.395715e-001 3.163406e+000 46 33 14
2.892184e-002 -4.511943e-001 3.188961e+000 50 38 25
1.580669e-001 -4.372794e-001 3.149755e+000 121 108 91
1.297928e-001 -4.379373e-001 3.159291e+000 123 112 92
8.404690e-002 -4.471065e-001 3.176091e+000 130 115 95
8.404690e-002 -4.471065e-001 3.176091e+000 130 115 95
7.389515e-002 -4.468343e-001 3.179306e+000 134 119 98
7.389515e-002 -4.468343e-001 3.179306e+000 134 119 98
7.367417e-002 -4.482093e-001 3.184250e+000 44 31 13
1.127838e-001 -4.490828e-001 3.177633e+000 143 131 117
3.084058e-002 -4.617521e-001 3.204755e+000 123 111 95
-3.422165e-002 -4.632516e-001 3.226358e+000 128 117 98
-3.422165e-002 -4.632516e-001 3.226358e+000 128 117 98
-1.500397e-002 -4.655806e-001 3.222867e+000 130 119 99
1.983669e-001 -4.492695e-001 3.163997e+000 60 46 27
1.587318e-001 -4.516048e-001 3.176682e+000 131 122 105
8.567571e-002 -4.606451e-001 3.202277e+000 127 113 93
8.567571e-002 -4.606451e-001 3.202277e+000 127 113 93
8.301762e-002 -4.635541e-001 3.206457e+000 55 40 21
8.301762e-002 -4.635541e-001 3.206457e+000 55 40 21
4.657025e-002 -4.669914e-001 3.218027e+000 132 119 102
1.163713e-001 -4.587430e-001 3.196638e+000 42 29 12
1.163713e-001 -4.587430e-001 3.196638e+000 42 29 12
1.036440e-002 -4.678413e-001 3.234755e+000 55 42 22
4.785402e-001 -4.347986e-001 3.118233e+000 47 37 21
4.702692e-001 -4.356728e-001 3.121175e+000 53 39 20
4.702692e-001 -4.356728e-001 3.121175e+000 53 39 20
3.053497e-001 -4.626319e-001 3.176762e+000 47 35 19
1.571620e-001 -4.815513e-001 3.228319e+000 39 27 10
7.596034e-002 -4.858591e-001 3.254835e+000 40 28 9
3.052332e-001 -4.685461e-001 3.183435e+000 46 37 18
1.734404e-001 -4.820240e-001 3.228623e+000 45 33 17
4.852125e-001 -4.430053e-001 3.131309e+000 43 36 18
4.228808e-001 -4.530862e-001 3.156268e+000 53 39 25
3.825480e-002 -5.060376e-001 3.285236e+000 62 47 26
3.825480e-002 -5.060376e-001 3.285236e+000 62 47 26
1.253837e-001 -4.962247e-001 3.258677e+000 126 111 91
4.001562e-001 -4.624319e-001 3.171527e+000 49 34 10
3.522022e-001 -4.693886e-001 3.186662e+000 53 37 15
1.226381e-001 -4.987849e-001 3.262982e+000 45 31 20
1.965275e-001 -4.929067e-001 3.241702e+000 41 29 13
1.701579e-001 -4.949777e-001 3.251443e+000 36 25 5
1.194723e-001 -5.021729e-001 3.269756e+000 121 109 89
3.078793e-001 -4.850678e-001 3.216108e+000 52 37 24
3.078793e-001 -4.850678e-001 3.216108e+000 52 37 24
1.173278e-001 -5.063876e-001 3.278010e+000 117 102 78
3.316226e-001 -4.871112e-001 3.220486e+000 53 39 23
2.054344e-001 -5.060723e-001 3.266245e+000 39 28 12
2.699105e-001 -5.031859e-001 3.251466e+000 122 105 89
-2.869235e-003 -5.322621e-001 3.338788e+000 119 106 88
2.644331e-001 -5.021752e-001 3.254751e+000 52 35 17
2.644331e-001 -5.021752e-001 3.254751e+000 52 35 17
2.941204e-001 -4.993913e-001 3.246139e+000 137 122 103
1.013596e-001 -5.278826e-001 3.317825e+000 46 30 14
2.281059e-001 -5.161415e-001 3.283873e+000 50 33 13
1.448620e-002 -5.413371e-001 3.357645e+000 134 117 99
1.421051e-001 -5.322703e-001 3.318024e+000 44 33 13
2.878574e-003 -5.516192e-001 3.370730e+000 46 31 19
2.468175e-002 -5.516515e-001 3.365109e+000 41 27 11
2.468175e-002 -5.516515e-001 3.365109e+000 41 27 11
2.490305e-001 -5.244383e-001 3.294067e+000 48 34 23
3.408095e-001 -5.182088e-001 3.276407e+000 38 27 7
2.063026e-001 -5.373839e-001 3.322580e+000 42 29 11
3.029956e-001 -5.271695e-001 3.293337e+000 35 18 8
3.029956e-001 -5.271695e-001 3.293337e+000 35 18 8
-1.928876e-003 -5.619607e-001 3.392153e+000 44 30 22
1.780463e-002 -5.629079e-001 3.388612e+000 122 109 87
2.388618e-003 -5.706520e-001 3.398469e+000 47 35 16
1.857612e-002 -5.725760e-001 3.404070e+000 45 33 23
1.857612e-002 -5.725760e-001 3.404070e+000 45 33 23
2.295223e-001 -5.504301e-001 3.337788e+000 29 13 3
2.169575e-002 -5.763788e-001 3.413337e+000 39 26 16
3.306575e-001 -5.439394e-001 3.323712e+000 46 30 17
3.306575e-001 -5.439394e-001 3.323712e+000 46 30 17
3.524084e-002 -5.810457e-001 3.417943e+000 48 40 26
4.517475e-002 -5.814267e-001 3.423684e+000 35 25 9
4.517475e-002 -5.814267e-001 3.423684e+000 35 25 9
1.666091e-001 -5.703227e-001 3.385284e+000 130 115 95
4.654891e-001 -5.322898e-001 3.290180e+000 47 32 12
2.455110e-001 -5.627642e-001 3.366178e+000 34 21 7
2.121886e-001 -5.668162e-001 3.376420e+000 44 28 9
2.121886e-001 -5.668162e-001 3.376420e+000 44 28 9
1.466834e-002 -5.925615e-001 3.442054e+000 54 40 23
4.826927e-001 -5.335261e-001 3.295451e+000 120 108 90
4.787337e-001 -5.375688e-001 3.299666e+000 42 29 12
2.352273e-001 -5.625402e-001 3.377940e+000 118 107 88
2.352273e-001 -5.625402e-001 3.377940e+000 118 107 88
3.610980e-001 -5.586467e-001 3.346220e+000 44 31 13
2.689850e-001 -5.727683e-001 3.381302e+000 117 109 95
2.393792e-001 -5.832743e-001 3.391827e+000 38 27 9
4.051230e-001 -5.564276e-001 3.339246e+000 54 38 16
3.843659e-001 -5.586858e-001 3.345662e+000 48 33 13
3.164854e-001 -5.708042e-001 3.372673e+000 48 30 11
3.164854e-001 -5.708042e-001 3.372673e+000 48 30 11
3.174533e-002 -6.050298e-001 3.469030e+000 44 31 17
1.828402e-001 -5.937303e-001 3.425386e+000 41 27 8
3.636845e-001 -5.714827e-001 3.370392e+000 38 30 16
6.580668e-002 -6.080962e-001 3.469618e+000 117 105 85
4.622050e-001 -5.604276e-001 3.342352e+000 129 108 79
3.277087e-001 -5.833488e-001 3.395596e+000 40 24 3
3.068692e-001 -5.897450e-001 3.403702e+000 44 32 20
2.364453e-001 -5.942710e-001 3.427315e+000 51 35 19
1.891041e-001 -6.018939e-001 3.448576e+000 51 36 20
1.794936e-001 -6.083065e-001 3.455670e+000 117 104 82
1.794936e-001 -6.083065e-001 3.455670e+000 117 104 82
3.269620e-001 -6.002449e-001 3.424084e+000 49 32 13
3.054185e-001 -6.029872e-001 3.431425e+000 37 22 1
2.721257e-001 -6.085479e-001 3.443105e+000 43 29 6
4.969386e-002 -6.402600e-001 3.525699e+000 53 41 24
4.213816e-001 -5.995990e-001 3.412079e+000 115 102 76
1.983161e-001 -6.284107e-001 3.490020e+000 121 109 87
1.983161e-001 -6.284107e-001 3.490020e+000 121 109 87
2.192565e-001 -6.310856e-001 3.493843e+000 39 26 10
3.278537e-001 -6.213344e-001 3.463061e+000 134 123 105
5.431788e-001 -5.936581e-001 3.394966e+000 44 35 18
4.097338e-001 -6.159648e-001 3.443922e+000 121 110 83
3.109812e-001 -6.288857e-001 3.476534e+000 28 16 4
2.619160e-001 -6.326269e-001 3.492440e+000 38 27 9
5.406883e-001 -5.969923e-001 3.402872e+000 32 23 6
4.790472e-001 -6.066699e-001 3.423253e+000 53 39 24
7.219210e-002 -6.571879e-001 3.556093e+000 52 37 21
7.219210e-002 -6.571879e-001 3.556093e+000 52 37 21
3.053484e-001 -6.252488e-001 3.481126e+000 45 30 13
5.093583e-001 -6.044383e-001 3.415405e+000 44 32 16
5.283638e-001 -6.000179e-001 3.410366e+000 112 104 88
3.205705e-001 -6.279093e-001 3.477888e+000 52 40 25
3.205705e-001 -6.279093e-001 3.477888e+000 52 40 25
2.116047e-001 -6.422397e-001 3.513455e+000 48 35 25
5.431098e-001 -6.017324e-001 3.408349e+000 50 37 21
5.431098e-001 -6.017324e-001 3.408349e+000 50 37 21
9.233928e-002 -6.573470e-001 3.558665e+000 57 41 26
9.233928e-002 -6.573470e-001 3.558665e+000 57 41 26
