ply
format ascii 1.0
element face 0
property list uchar int vertex_indices
element vertex 605
property float x
property float y
property float z
property uchar diffuse_red
property uchar diffuse_green
property uchar diffuse_blue
end_header
1.892135e+000 -1.150728e+000 -6.876267e+000 203 182 70
2.163385e+000 -8.883780e-001 -6.315906e+000 221 195 83
2.163385e+000 -8.883780e-001 -6.315906e+000 221 195 83
2.184035e+000 -8.792910e-001 -6.279223e+000 177 153 51
2.181053e+000 -7.756264e-001 -6.283811e+000 214 189 76
2.197977e+000 -7.046211e-001 -6.274057e+000 215 190 73
2.172124e+000 -8.163181e-001 -6.296793e+000 215 191 85
2.492165e+000 -4.993389e-001 -5.473037e+000 226 182 185
2.142771e+000 -9.815594e-001 -6.352882e+000 212 189 70
1.891327e+000 -1.108005e+000 -6.867902e+000 41 28 0
1.891327e+000 -1.108005e+000 -6.867902e+000 41 28 0
2.502100e+000 -3.860562e-001 -5.463251e+000 234 192 195
2.493267e+000 -4.351951e-001 -5.478483e+000 239 180 181
2.090661e+000 -6.481252e-001 -6.454664e+000 218 186 68
-8.698509e-001 4.763094e-001 -4.678980e+000 21 27 43
-8.683282e-001 4.767930e-001 -4.679204e+000 21 27 43
-8.698509e-001 4.763094e-001 -4.678980e+000 21 27 43
-8.359802e-001 -2.595149e-001 -5.154570e+000 23 24 28
8.710116e-001 2.891168e-002 -5.759144e+000 210 178 197
6.892193e-002 3.206787e-001 -5.620955e+000 152 22 32
-9.132265e-001 5.872263e-001 -4.701523e+000 192 205 242
1.045292e+000 -3.931994e-002 -5.610112e+000 180 117 131
1.323411e+000 1.753213e-001 -5.657628e+000 188 119 130
1.003814e+000 5.327245e-001 -5.609524e+000 213 193 208
1.003814e+000 5.327245e-001 -5.609524e+000 213 193 208
3.751666e-001 4.561237e-001 -5.497688e+000 72 2 3
-8.533044e-001 3.518517e-001 -4.733500e+000 187 201 240
8.311280e-001 5.257795e-001 -5.613219e+000 95 0 2
4.691491e-001 9.552202e-001 -5.655299e+000 163 18 29
2.312310e+000 -1.143859e+000 -5.967535e+000 202 197 106
9.976362e-001 2.026058e-002 -5.686361e+000 72 5 8
1.945009e-002 4.126090e-001 -5.604131e+000 225 56 94
1.945009e-002 4.126090e-001 -5.604131e+000 225 56 94
-5.620742e-001 4.034925e-001 -4.752891e+000 108 54 70
1.725118e-001 6.123814e-001 -5.513010e+000 217 202 221
-9.185911e-001 4.723835e-001 -4.659543e+000 18 20 30
4.131466e-001 1.043605e+000 -5.659649e+000 171 150 172
2.497269e+000 -4.997258e-001 -5.480973e+000 226 182 185
9.064117e-001 -9.728709e-002 -5.696233e+000 51 9 18
8.242661e-001 1.023987e-001 -5.802601e+000 139 29 46
-4.780482e-001 2.731015e-001 -4.701064e+000 157 99 113
1.049856e+000 6.221138e-001 -5.627461e+000 44 9 7
1.333490e-001 5.408284e-001 -5.499316e+000 82 11 26
-5.770450e-001 4.459076e-001 -4.743468e+000 235 181 195
-9.573606e-001 4.262409e-001 -4.705211e+000 183 230 255
-8.906487e-001 5.422711e-001 -4.573610e+000 179 225 255
-9.140219e-001 6.040292e-001 -4.681799e+000 243 231 243
-8.208632e-001 7.072411e-001 -4.633627e+000 225 165 177
9.574153e-001 -4.830078e-002 -5.712814e+000 66 13 22
1.235444e+000 6.377748e-002 -5.606947e+000 95 35 39
1.114193e+000 7.120009e-002 -5.661188e+000 172 101 113
6.590245e-001 1.679790e-001 -5.754829e+000 115 4 13
9.098944e-001 5.681933e-001 -5.598601e+000 104 11 16
-7.532329e-002 5.736856e-001 -5.510449e+000 108 9 22
-8.804467e-001 4.442792e-001 -4.693844e+000 255 254 254
5.545031e-001 9.154650e-001 -5.662472e+000 153 14 28
-9.211356e-001 7.175361e-001 -4.648800e+000 227 167 179
-1.028505e+000 7.167604e-001 -4.660743e+000 133 74 96
4.445956e-001 1.089272e+000 -5.652390e+000 166 22 33
1.576840e+000 1.230974e+000 -5.386392e+000 69 31 28
1.576840e+000 1.230974e+000 -5.386392e+000 69 31 28
1.796762e+000 -3.407657e+000 -1.276915e+001 97 90 106
-1.214811e+000 -2.802631e+000 -1.300900e+001 72 44 55
2.171635e+000 -8.573428e-001 -6.315665e+000 214 191 78
-8.378429e-001 -1.987551e-001 -5.133000e+000 251 253 255
9.179539e-001 -5.959666e-002 -5.751866e+000 173 134 153
2.112337e+000 5.669071e-001 -6.374779e+000 110 64 25
-8.607294e-001 3.795855e-001 -4.695500e+000 165 217 254
-9.850038e-001 3.989822e-001 -4.711150e+000 168 156 197
-6.208266e-001 5.767496e-001 -4.669798e+000 170 104 126
-8.707904e-001 6.896199e-001 -4.640634e+000 178 107 123
-9.134792e-001 6.862830e-001 -4.639021e+000 174 107 127
-9.142188e-001 6.866199e-001 -4.642391e+000 174 107 127
1.694897e+000 1.354955e+000 -5.531396e+000 69 30 30
9.841955e-001 1.557890e+000 -5.807384e+000 140 24 34
2.553593e+000 -2.919331e+000 -1.040748e+001 103 99 121
2.308078e+000 -3.027144e+000 -1.120134e+001 108 101 117
2.421635e+000 -2.569826e+000 -1.076870e+001 64 53 67
2.339272e+000 -2.366312e+000 -1.111574e+001 74 53 61
2.291646e+000 -2.372361e+000 -1.117438e+001 124 120 134
2.291646e+000 -2.372361e+000 -1.117438e+001 124 120 134
2.476598e+000 -6.019679e-001 -5.537058e+000 240 184 195
2.493336e+000 -5.676453e-001 -5.475442e+000 242 193 212
2.142173e+000 -6.973720e-001 -6.384181e+000 164 169 117
2.501646e+000 -4.854738e-001 -5.453350e+000 234 173 188
2.189060e+000 -6.080786e-001 -6.268451e+000 177 147 41
9.642718e-001 -9.994816e-003 -5.712889e+000 171 124 141
-5.051814e-001 -5.761065e-002 -4.849145e+000 226 178 187
-4.965460e-001 -1.457207e-002 -4.815540e+000 219 171 182
-4.566578e-001 6.216037e-002 -4.764558e+000 157 101 112
-4.566578e-001 6.216037e-002 -4.764558e+000 157 101 112
-8.962064e-001 5.663261e-002 -4.730778e+000 215 151 168
-4.635393e-001 2.189503e-001 -4.714381e+000 157 99 112
-8.867067e-001 2.056330e-001 -4.763105e+000 245 182 191
1.205492e-001 5.685807e-001 -5.477283e+000 233 218 230
1.486220e-001 5.876177e-001 -5.477185e+000 229 219 231
-8.663482e-001 6.030582e-001 -4.677124e+000 241 217 230
3.870020e-001 9.032087e-001 -5.641239e+000 203 132 150
-9.507503e-001 7.013553e-001 -4.642412e+000 232 172 179
4.444325e-001 1.014381e+000 -5.652456e+000 152 22 54
2.756233e+000 -3.306218e+000 -9.909061e+000 111 103 121
2.452451e+000 -3.619839e+000 -1.081854e+001 100 95 114
2.547159e+000 -3.464923e+000 -1.057878e+001 115 112 130
2.564004e+000 -3.128896e+000 -1.048451e+001 117 106 126
2.453485e+000 -2.698091e+000 -1.084013e+001 73 58 66
2.120727e+000 -2.211286e+000 -1.159740e+001 107 92 111
1.929727e+000 -2.375841e+000 -1.228154e+001 97 86 99
2.082696e+000 -2.004114e+000 -1.176796e+001 107 91 101
2.500816e+000 -7.013044e-001 -5.466819e+000 247 142 75
2.175846e+000 -8.179374e-001 -6.306151e+000 215 191 85
2.502549e+000 -5.259324e-001 -5.460393e+000 249 179 194
2.519741e+000 -3.424242e-001 -5.397297e+000 215 78 123
9.073822e-001 3.562448e-003 -5.715593e+000 223 194 208
8.831126e-002 5.540204e-001 -5.477302e+000 239 225 235
-9.358837e-002 5.441786e-001 -5.478264e+000 209 176 193
1.557912e+000 1.016475e+000 -5.299725e+000 159 96 109
5.651697e-001 9.525012e-001 -5.663167e+000 212 136 155
9.787446e-001 -3.032958e-001 -5.557547e+000 215 148 157
-1.431159e-002 4.882223e-001 -5.564250e+000 243 238 244
-2.529366e-001 5.515835e-001 -5.304274e+000 34 19 22
1.967030e+000 7.893108e-001 -6.347728e+000 192 132 142
-6.310299e-002 2.739100e-001 -5.652466e+000 235 234 242
1.520254e-002 1.454163e+000 -5.969853e+000 161 15 26
-1.276230e+000 -2.941579e+000 -1.290746e+001 58 58 69
-4.428301e-002 1.631593e-001 -5.811983e+000 198 32 51
1.409067e+000 2.952171e-001 -5.788979e+000 67 9 9
-3.002531e+000 3.228520e+000 -1.229176e+001 23 21 26
3.635267e-001 -3.472691e+000 -1.356818e+001 9 9 9
7.738161e-001 5.186818e-002 -5.799292e+000 238 230 239
-1.303901e-001 2.021109e-001 -5.715567e+000 230 212 229
2.312963e+000 -1.144293e+000 -5.969101e+000 202 197 106
1.170058e+000 9.322841e-002 -5.652934e+000 189 123 137
2.874355e-001 4.783657e-001 -5.507464e+000 230 208 219
-3.642779e-002 7.274418e-001 -5.568358e+000 91 1 7
1.551937e+000 1.377621e+000 -5.490771e+000 169 119 130
8.596005e-001 -4.995112e+000 -1.504234e+001 42 42 51
2.412241e+000 -3.652292e+000 -1.100663e+001 37 33 48
2.412241e+000 -3.652292e+000 -1.100663e+001 37 33 48
3.000618e+000 -2.918950e+000 -9.200814e+000 60 49 63
2.674990e+000 -2.743797e+000 -1.005034e+001 64 55 67
2.415977e+000 -2.041657e+000 -8.318559e+000 188 174 148
5.035448e-001 -3.263987e+000 -1.335930e+001 104 81 65
2.511175e+000 -3.783965e-001 -5.433290e+000 224 181 194
2.511175e+000 -3.783965e-001 -5.433290e+000 224 181 194
2.213945e+000 -3.310834e-001 -6.269217e+000 220 184 47
6.056748e-001 1.648897e+000 -5.945788e+000 67 1 0
2.686752e+000 -3.200314e+000 -1.010757e+001 53 42 52
2.679461e+000 -3.190853e+000 -1.008059e+001 53 42 52
2.304854e+000 -1.939090e+000 -8.607346e+000 178 171 140
1.550433e+000 -2.587546e+000 -1.265614e+001 110 84 65
1.420294e+000 -2.540553e+000 -1.268257e+001 18 29 45
2.081699e+000 -2.163608e+000 -1.176970e+001 54 41 43
2.477693e+000 -6.067920e-001 -5.478615e+000 225 190 208
2.061012e+000 3.118453e-001 -6.478385e+000 147 111 50
5.008176e-001 8.176799e-001 -5.605551e+000 148 19 29
1.696478e+000 1.354541e+000 -5.535588e+000 69 30 30
2.348156e+000 -3.907508e+000 -1.110698e+001 84 79 97
2.552995e+000 -3.314704e+000 -1.058097e+001 98 89 106
2.862057e+000 -2.863465e+000 -9.493629e+000 56 43 54
1.775092e+000 -3.703644e+000 -1.274955e+001 10 10 12
1.787173e+000 -3.728663e+000 -1.282960e+001 10 10 12
2.718663e+000 -2.860482e+000 -9.967485e+000 59 47 61
2.718663e+000 -2.860482e+000 -9.967485e+000 59 47 61
2.528506e+000 -2.976849e+000 -1.057064e+001 59 52 64
2.528506e+000 -2.976849e+000 -1.057064e+001 59 52 64
1.679663e+000 -2.777656e+000 -1.290042e+001 47 38 45
1.999688e+000 -2.325272e+000 -1.195141e+001 52 42 42
1.896391e+000 -1.152286e+000 -6.886390e+000 203 182 70
2.480307e+000 -6.091010e-001 -5.483986e+000 227 196 213
2.507503e+000 -4.334920e-001 -5.429238e+000 236 188 201
2.513395e+000 -3.742344e-001 -5.404693e+000 245 191 207
2.123170e+000 -2.903857e-001 -6.248444e+000 114 69 10
-5.263931e-001 -1.104281e-001 -4.884254e+000 229 178 190
-4.304688e-001 1.537610e-001 -4.748730e+000 225 164 172
4.925564e-001 1.974056e-001 -5.765871e+000 125 4 14
2.097444e+000 2.591887e-001 -6.495257e+000 84 49 7
-3.711188e-001 3.848630e-001 -4.747425e+000 207 155 168
2.162240e+000 5.908924e-001 -6.370759e+000 176 139 90
3.813126e-001 5.229839e-001 -5.549878e+000 156 27 44
-5.939114e-001 5.281738e-001 -4.686840e+000 189 126 143
-5.939114e-001 5.281738e-001 -4.686840e+000 189 126 143
3.059805e-001 6.509393e-001 -5.422138e+000 219 197 209
4.515795e-001 6.685086e-001 -5.479570e+000 246 224 228
4.515795e-001 6.685086e-001 -5.479570e+000 246 224 228
-6.198410e-001 5.774330e-001 -4.668769e+000 170 104 126
5.327325e-001 7.852760e-001 -5.642676e+000 205 172 197
-7.039931e-001 6.375460e-001 -4.645760e+000 233 178 193
-7.439961e-001 6.706271e-001 -4.646695e+000 226 172 182
-1.006204e+000 6.899158e-001 -4.652693e+000 229 167 180
1.216404e+000 1.065089e+000 -5.278173e+000 184 132 143
2.822212e+000 -3.132351e+000 -9.696639e+000 52 45 57
2.518895e+000 -3.422273e+000 -1.067901e+001 101 97 119
2.454764e+000 -3.411337e+000 -1.078635e+001 105 97 118
2.207552e+000 -3.575184e+000 -1.148160e+001 53 51 65
2.190488e+000 -3.511063e+000 -1.149897e+001 85 78 96
2.138206e+000 -3.463096e+000 -1.168014e+001 39 35 49
2.797490e+000 -2.760823e+000 -9.758859e+000 57 41 47
2.797490e+000 -2.760823e+000 -9.758859e+000 57 41 47
2.418699e+000 -2.883772e+000 -1.091827e+001 57 46 54
1.668638e+000 -3.464176e+000 -1.314265e+001 88 85 103
2.444994e+000 -2.135165e+000 -8.242418e+000 187 178 144
2.565086e+000 -2.599432e+000 -1.033821e+001 67 55 65
1.728979e+000 -3.083607e+000 -1.293108e+001 54 48 60
2.305132e+000 -2.013490e+000 -8.555988e+000 113 98 80
2.128588e+000 -2.397618e+000 -1.167976e+001 63 47 57
2.339655e+000 -2.252358e+000 -1.101368e+001 121 118 134
2.134502e+000 -8.690306e-001 -6.397296e+000 216 192 86
2.485635e+000 -6.352214e-001 -5.560845e+000 221 70 104
2.483258e+000 -5.531025e-001 -5.525078e+000 239 180 193
2.044542e+000 -5.598698e-001 -6.583991e+000 228 191 78
2.229776e+000 -4.759110e-001 -6.199298e+000 229 196 57
2.229776e+000 -4.759110e-001 -6.199298e+000 229 196 57
8.396814e-001 -3.801226e-001 -5.576372e+000 169 46 60
2.180122e+000 -3.649558e-001 -6.253712e+000 97 62 2
2.518717e+000 -3.175840e-001 -5.385641e+000 232 191 210
2.154640e+000 -3.268369e-001 -6.258545e+000 120 75 14
2.519523e+000 -2.637904e-001 -5.423457e+000 240 192 195
2.118559e+000 2.735278e-001 -6.448305e+000 176 139 48
-3.507769e-001 4.033747e-001 -4.787272e+000 171 123 144
-3.380366e-001 4.311841e-001 -4.810785e+000 220 191 199
-1.002089e+000 4.408313e-001 -4.706737e+000 173 160 195
1.614973e-001 5.661767e-001 -5.481105e+000 73 21 45
3.872743e-001 6.111450e-001 -5.492783e+000 243 214 219
1.712442e-001 6.586107e-001 -5.519546e+000 71 6 13
-5.932080e-001 5.719368e-001 -4.692041e+000 237 174 184
-8.744033e-001 6.639205e-001 -4.634666e+000 228 165 173
-9.302180e-001 7.483578e-001 -4.655674e+000 157 100 122
-3.882691e+000 4.006042e+000 -1.190401e+001 146 93 86
2.222782e+000 -3.941487e+000 -1.144189e+001 51 45 59
2.262223e+000 -3.884592e+000 -1.132156e+001 89 87 105
1.011220e+000 -5.109193e+000 -1.492109e+001 48 48 57
2.253393e+000 -3.772241e+000 -1.129315e+001 88 85 102
2.701029e+000 -3.354510e+000 -1.013183e+001 59 54 71
2.986279e+000 -3.008910e+000 -9.213785e+000 56 47 62
2.405061e+000 -3.490506e+000 -1.099736e+001 99 95 118
2.344675e+000 -3.521960e+000 -1.120100e+001 56 46 58
2.839387e+000 -2.994134e+000 -9.692450e+000 117 110 126
2.380572e+000 -3.289241e+000 -1.093057e+001 53 46 61
2.534956e+000 -3.158078e+000 -1.055527e+001 68 59 74
2.175160e+000 -3.420994e+000 -1.161016e+001 88 81 97
1.656726e+000 -3.867300e+000 -1.316542e+001 36 26 32
2.516649e+000 -3.075842e+000 -1.059259e+001 100 93 109
1.999363e+000 -3.503173e+000 -1.214281e+001 52 47 68
1.999363e+000 -3.503173e+000 -1.214281e+001 52 47 68
2.667257e+000 -2.818178e+000 -1.009180e+001 47 34 47
2.117624e+000 -3.284218e+000 -1.183767e+001 90 78 86
1.858359e+000 -3.472820e+000 -1.256144e+001 44 36 49
2.458918e+000 -2.900665e+000 -1.068182e+001 57 46 60
2.000500e+000 -3.156973e+000 -1.210579e+001 57 49 60
1.997926e+000 -3.073761e+000 -1.205947e+001 89 85 99
1.997926e+000 -3.073761e+000 -1.205947e+001 89 85 99
2.509985e+000 -2.546844e+000 -1.056143e+001 106 99 115
2.509985e+000 -2.546844e+000 -1.056143e+001 106 99 115
2.424647e+000 -2.573093e+000 -1.078139e+001 64 53 67
2.424647e+000 -2.573093e+000 -1.078139e+001 64 53 67
1.292688e+000 -3.041494e+000 -1.426844e+001 74 67 78
2.166601e+000 -2.216628e+000 -1.155778e+001 68 55 68
2.314219e+000 -1.141739e+000 -5.971423e+000 197 196 106
2.348278e+000 -2.042851e+000 -1.103140e+001 71 60 79
2.206961e+000 -2.026095e+000 -1.128652e+001 91 79 87
2.206961e+000 -2.026095e+000 -1.128652e+001 91 79 87
2.042493e+000 -2.041316e+000 -1.184445e+001 62 50 55
2.490290e+000 -5.127944e-001 -5.507803e+000 233 187 193
2.244615e+000 -2.620461e-001 -6.175755e+000 175 144 33
2.525851e+000 -2.236669e-001 -5.412017e+000 237 192 205
2.171122e+000 5.158832e-001 -6.327677e+000 139 84 16
-7.560804e-001 4.214495e-001 -4.694088e+000 182 160 191
-9.550687e-001 4.657240e-001 -4.676661e+000 147 198 228
-8.267515e-001 5.922355e-001 -4.666921e+000 235 199 217
5.346885e-001 8.311458e-001 -5.616695e+000 202 159 176
-7.262606e-001 6.906508e-001 -4.646238e+000 146 87 107
3.880782e-001 9.037466e-001 -5.642408e+000 203 132 150
-8.312049e-001 7.661739e-001 -4.658132e+000 216 161 173
5.263613e-001 1.045844e+000 -5.676667e+000 142 34 59
-3.878871e+000 3.544719e+000 -1.188195e+001 144 80 72
-5.288111e+000 3.590698e+000 -1.159211e+001 128 72 58
-5.288111e+000 3.590698e+000 -1.159211e+001 128 72 58
-5.437272e+000 3.576266e+000 -1.151256e+001 125 72 64
-5.437272e+000 3.576266e+000 -1.151256e+001 125 72 64
-3.795787e+000 3.696982e+000 -1.196264e+001 129 57 41
-3.883261e+000 3.713468e+000 -1.201033e+001 130 57 30
-4.984093e+000 3.669814e+000 -1.157853e+001 130 72 56
-3.761824e+000 3.775298e+000 -1.193373e+001 132 53 30
-4.857593e+000 3.781989e+000 -1.163833e+001 134 72 65
-4.814698e+000 3.869182e+000 -1.160646e+001 135 75 58
-3.469918e+000 3.996153e+000 -1.195721e+001 143 85 86
2.360425e+000 -1.671121e+000 -5.820358e+000 214 38 63
7.045574e-001 2.496160e-001 -5.667957e+000 204 29 53
7.045574e-001 2.496160e-001 -5.667957e+000 204 29 53
-7.267053e-001 -3.175158e-001 -5.167218e+000 235 183 196
-7.753227e-001 5.182483e-001 -4.678257e+000 162 189 226
2.114448e+000 1.075394e+000 -5.996014e+000 212 176 116
-3.155618e+000 3.786594e+000 -1.461245e+001 29 26 34
8.021084e-001 -3.672660e-002 -5.792466e+000 81 4 10
-2.992027e+000 4.134023e+000 -1.674233e+001 96 85 103
1.265715e+000 -2.536995e+000 -1.337327e+001 25 29 49
1.910827e+000 -1.040654e+000 -6.842116e+000 203 178 60
1.267871e+000 -9.591999e-002 -5.437540e+000 215 151 156
7.125024e-001 4.509282e-002 -5.850046e+000 199 45 81
2.884309e-001 1.016387e-001 -5.688065e+000 204 42 82
7.240905e-001 1.382754e-001 -5.772715e+000 111 13 20
-5.630170e-001 3.600360e-001 -4.715438e+000 211 160 172
4.997332e-001 8.629650e-001 -5.659355e+000 138 12 28
-8.895219e-001 7.191493e-001 -4.644135e+000 224 165 176
2.065741e+000 -2.289875e+000 -1.192816e+001 104 96 105
8.422355e-001 -1.724079e-002 -5.764865e+000 223 197 213
2.166634e+000 5.240106e-001 -6.306708e+000 149 93 24
1.074077e+000 5.707723e-001 -5.555953e+000 102 6 13
-7.667661e-001 8.831798e-001 -4.710196e+000 158 124 143
2.942764e+000 -3.164880e+000 -9.370517e+000 122 117 137
2.728790e+000 -3.292688e+000 -1.003905e+001 117 111 132
2.307848e+000 -3.027043e+000 -1.120099e+001 108 101 117
2.640511e+000 -2.587427e+000 -1.020398e+001 120 114 129
2.570174e+000 -2.605020e+000 -1.036007e+001 67 55 65
2.236766e+000 -1.466489e+000 -6.062899e+000 201 153 45
2.236766e+000 -1.466489e+000 -6.062899e+000 201 153 45
2.345908e+000 -2.368936e+000 -1.113007e+001 74 53 61
2.143814e+000 -8.324797e-001 -6.388459e+000 217 194 83
2.179486e+000 -7.303653e-001 -6.307629e+000 163 137 40
2.222293e+000 -5.044495e-001 -6.196420e+000 225 194 63
-8.176760e-001 3.462534e-001 -4.727135e+000 245 237 249
1.053771e+000 4.756199e-001 -5.574996e+000 201 41 74
2.938002e+000 -3.274610e+000 -9.560959e+000 116 113 136
2.504189e+000 -3.468898e+000 -1.061730e+001 51 47 63
2.918914e+000 -3.004193e+000 -9.452558e+000 115 100 121
2.785244e+000 -3.095175e+000 -9.812551e+000 32 30 45
2.647514e+000 -3.174535e+000 -1.031531e+001 115 109 126
2.373626e+000 -3.289470e+000 -1.107276e+001 113 109 127
2.601241e+000 -2.658498e+000 -1.026838e+001 67 61 76
2.420273e+000 -2.813393e+000 -1.087897e+001 116 108 123
2.451555e+000 -2.557934e+000 -1.067806e+001 104 104 123
2.535063e+000 -2.452958e+000 -1.041090e+001 111 103 121
2.083383e+000 -2.004168e+000 -1.176682e+001 107 91 101
2.477527e+000 -5.831070e-001 -5.491779e+000 208 106 133
2.477527e+000 -5.831070e-001 -5.491779e+000 208 106 133
2.469647e+000 -5.210538e-001 -5.517017e+000 206 60 87
2.500906e+000 -4.600608e-001 -5.469465e+000 208 95 123
2.242079e+000 -4.617276e-001 -6.143691e+000 167 135 16
2.514503e+000 -2.405641e-001 -5.424336e+000 215 80 98
2.514503e+000 -2.405641e-001 -5.424336e+000 215 80 98
2.263541e+000 -4.652594e-002 -6.084604e+000 167 136 16
2.449576e+000 5.574179e-002 -5.561860e+000 184 158 92
-6.081488e-001 4.052897e-001 -4.743699e+000 220 158 170
2.096487e-001 6.273790e-001 -5.485264e+000 187 157 176
-6.968368e-001 8.615803e-001 -4.721118e+000 132 93 111
-2.421226e+000 3.129912e+000 -1.184921e+001 91 86 95
1.603598e+000 3.563061e-001 -6.024672e+000 205 41 51
-2.448879e+000 1.762726e+000 -1.239574e+001 124 105 114
1.874469e+000 -1.129393e+000 -6.830033e+000 226 207 90
-7.161971e-001 2.914689e-001 -4.827919e+000 223 153 168
-7.161971e-001 2.914689e-001 -4.827919e+000 223 153 168
1.335121e+000 9.375693e-002 -5.556806e+000 132 26 23
9.587154e-001 1.294481e-001 -5.804331e+000 135 14 22
-8.795790e-001 1.672356e-001 -4.740352e+000 223 160 168
1.407036e+000 1.267105e+000 -5.358939e+000 200 144 155
-1.906336e+000 2.057109e+000 -1.170674e+001 121 100 115
-4.523219e-001 -1.704369e-001 -5.084284e+000 251 208 218
1.143227e+000 3.401801e-002 -5.526328e+000 134 59 62
7.997565e-001 -2.234081e+000 -1.236431e+001 150 127 125
-7.500019e-001 2.710892e-001 -4.721020e+000 217 152 166
3.821168e-001 6.134680e-001 -5.506874e+000 249 236 236
2.135939e+000 -1.781124e+000 -9.039901e+000 197 186 164
1.906972e+000 -1.056181e+000 -6.834637e+000 234 210 88
2.193942e+000 -6.370852e-001 -6.224797e+000 243 216 80
2.227872e+000 -5.370569e-001 -6.147861e+000 190 158 35
2.229309e+000 -5.364456e-001 -6.149328e+000 190 158 35
-4.943956e-001 3.087361e-001 -4.697583e+000 186 125 131
-5.315381e-001 3.745038e-001 -4.706664e+000 149 91 108
-8.798444e-001 7.536686e-001 -4.663314e+000 184 119 134
2.344289e+000 -2.255657e+000 -1.102325e+001 153 149 170
2.114931e+000 -8.378764e-001 -6.419352e+000 184 192 135
2.121485e+000 -8.405346e-001 -6.433328e+000 184 192 135
2.207787e+000 -5.909399e-001 -6.243462e+000 246 219 83
1.164047e+000 -3.471004e-001 -5.451461e+000 163 93 103
1.249784e+000 -1.357410e-001 -5.424907e+000 156 83 91
-5.122491e-001 2.880203e-001 -4.706161e+000 247 197 208
2.630933e+000 -3.017932e+000 -1.025853e+001 140 131 150
2.547618e+000 -2.653284e+000 -1.042447e+001 128 115 128
2.396814e+000 -2.773327e+000 -1.090778e+001 80 68 82
2.139964e+000 -9.327649e-001 -6.375503e+000 200 170 46
2.139964e+000 -9.327649e-001 -6.375503e+000 200 170 46
2.184054e+000 -8.793346e-001 -6.279200e+000 200 173 44
2.144971e+000 -8.635325e-001 -6.341602e+000 196 170 45
2.144971e+000 -8.635325e-001 -6.341602e+000 196 170 45
1.979934e+000 -2.093110e+000 -1.199804e+001 74 49 49
2.237379e+000 -5.013467e-001 -6.155779e+000 206 173 42
-8.853510e-001 -4.069971e-001 -5.343452e+000 236 189 200
2.223174e+000 -3.799875e-001 -6.198440e+000 206 171 32
-9.273677e-001 -2.452369e-001 -5.148663e+000 157 204 237
-9.354005e-001 -1.993559e-001 -5.103275e+000 119 141 190
8.989685e-001 1.104152e-001 -5.782730e+000 150 41 66
-9.064099e-001 2.707946e-001 -4.743292e+000 228 166 183
-6.759325e-001 3.457963e-001 -4.716549e+000 202 130 146
3.393060e-001 6.024744e-001 -5.465145e+000 155 106 126
3.530435e-001 6.267450e-001 -5.474788e+000 247 224 229
-1.054326e+000 7.663248e-001 -4.704936e+000 249 196 203
1.643093e+000 1.378075e+000 -5.506099e+000 189 140 135
8.948207e-001 4.789397e-001 -5.557695e+000 213 195 202
8.948207e-001 4.789397e-001 -5.557695e+000 213 195 202
2.617276e+000 -3.238409e+000 -1.035671e+001 65 50 61
1.926813e+000 -3.749965e+000 -1.239101e+001 90 91 111
1.926813e+000 -3.749965e+000 -1.239101e+001 90 91 111
-4.855300e-001 2.201937e-001 -4.691580e+000 225 173 182
4.868638e-001 1.052863e+000 -5.669774e+000 140 30 54
1.648267e+000 2.891723e+000 -7.395167e+000 141 136 153
-5.645035e-001 3.520818e-001 -4.699291e+000 240 193 203
-1.032420e-001 6.514653e-001 -5.548639e+000 233 45 74
-2.854547e+000 1.100494e+000 -1.278070e+001 117 96 105
6.045957e-001 1.648769e+000 -5.943062e+000 96 5 3
2.502888e+000 -6.371511e-001 -5.457356e+000 255 64 99
2.502888e+000 -6.371511e-001 -5.457356e+000 255 64 99
1.245029e-001 5.372512e-001 -5.471585e+000 104 39 63
8.431130e-001 6.748479e-001 -5.652988e+000 234 44 79
4.160996e-001 8.428589e-001 -5.639658e+000 180 37 58
1.193400e+000 1.361110e+000 -5.744042e+000 75 43 27
2.661754e+000 -3.378273e+000 -1.024008e+001 128 117 139
1.114375e+000 -3.231162e-001 -5.431031e+000 244 181 190
1.885541e-001 5.193688e-001 -5.477428e+000 150 99 104
5.519584e-001 9.184055e-001 -5.658113e+000 194 28 51
1.515628e+000 1.232833e+000 -5.356822e+000 185 130 132
1.328762e-001 1.199375e+000 -5.726503e+000 117 3 7
5.680519e-001 1.356364e+000 -5.954769e+000 78 0 0
-3.285519e-001 1.762644e+000 -9.656994e+000 6 6 4
1.328888e+000 2.519749e+000 -8.069868e+000 19 14 17
1.691263e+000 -4.654702e+000 -1.323720e+001 92 88 103
2.529677e+000 -3.579441e+000 -1.059034e+001 126 118 137
2.119282e+000 -3.970832e+000 -1.183395e+001 117 113 130
1.807428e+000 -4.406083e+000 -1.294243e+001 60 44 54
2.072138e+000 -3.310094e+000 -1.192783e+001 74 62 78
2.116826e+000 -9.438981e-001 -6.411260e+000 242 216 84
2.127719e+000 -8.251802e-001 -6.358199e+000 240 220 94
4.572300e-001 8.346741e-001 -5.654236e+000 230 194 214
4.572300e-001 8.346741e-001 -5.654236e+000 230 194 214
-3.252057e-001 1.704850e+000 -9.686047e+000 72 59 60
-6.200217e-001 1.769833e+000 -1.025196e+001 14 12 15
1.628453e+000 2.410683e+000 -7.520897e+000 115 95 82
1.628453e+000 2.410683e+000 -7.520897e+000 115 95 82
2.652394e+000 -3.423837e+000 -1.031504e+001 124 118 149
2.725212e+000 -3.283349e+000 -1.000632e+001 146 138 160
1.838709e+000 -4.304840e+000 -1.275514e+001 106 103 119
2.814988e+000 -3.095291e+000 -9.766893e+000 124 114 122
2.329049e+000 -3.255986e+000 -1.115805e+001 117 110 129
1.869875e+000 -3.195748e+000 -1.251866e+001 110 102 119
-8.950194e-001 5.721715e-002 -4.729385e+000 236 173 188
-5.327476e-001 4.037668e-001 -4.734274e+000 196 138 152
4.461520e-001 8.914553e-001 -5.649097e+000 235 153 173
5.763347e-001 1.038278e+000 -5.677802e+000 162 28 49
4.384168e-001 1.039164e+000 -5.663594e+000 223 201 224
2.516236e+000 -2.971175e-001 -5.404250e+000 227 157 174
2.562686e+000 -3.110792e-002 -5.344524e+000 221 180 195
2.496809e+000 -3.768906e-001 -5.417314e+000 205 169 184
2.541980e+000 -3.502214e-001 -5.367145e+000 213 36 57
2.528878e+000 -2.135868e-001 -5.377256e+000 220 180 189
2.510498e+000 -7.386640e-002 -5.400063e+000 214 39 53
2.559013e+000 1.063021e-001 -5.270095e+000 220 188 205
2.561339e+000 1.055742e-001 -5.274166e+000 220 188 205
2.516466e+000 -5.580678e-001 -5.440106e+000 214 37 60
-3.059429e+000 -4.843780e-001 -1.505614e+001 103 100 125
-7.089848e-001 6.374956e-001 -4.639378e+000 220 167 180
-9.887392e-001 6.635862e-001 -4.638749e+000 158 96 117
2.828964e+000 -3.002618e+000 -9.774514e+000 87 79 92
2.205435e+000 -7.528467e-001 -6.245966e+000 161 135 39
2.214921e+000 -5.425716e-001 -6.206610e+000 213 182 65
2.525893e+000 -1.335533e-001 -5.386019e+000 228 185 199
-3.076229e+000 -5.144478e-001 -1.522986e+001 105 101 122
-2.261595e+000 4.508900e-001 -1.240392e+001 30 23 27
-2.261595e+000 4.508900e-001 -1.240392e+001 30 23 27
-7.566588e-001 4.201204e-001 -4.690394e+000 168 140 174
4.076358e-001 1.108486e+000 -5.663406e+000 204 168 181
4.076358e-001 1.108486e+000 -5.663406e+000 204 168 181
2.928233e+000 -3.149525e+000 -9.341313e+000 81 74 89
2.195547e+000 -7.987111e-001 -6.252663e+000 159 131 35
2.195547e+000 -7.987111e-001 -6.252663e+000 159 131 35
2.507787e+000 -4.335553e-001 -5.426257e+000 226 180 196
2.518320e+000 -3.757771e-001 -5.410114e+000 229 182 199
2.527080e+000 -2.172087e-002 -5.371825e+000 229 167 175
2.527080e+000 -2.172087e-002 -5.371825e+000 229 167 175
2.566233e+000 1.390883e-001 -5.257229e+000 208 43 65
2.576245e+000 2.361700e-001 -5.227960e+000 190 71 99
-1.984458e+000 5.552512e-001 -1.197247e+001 41 29 37
-1.888508e+000 6.123066e-001 -1.181913e+001 39 29 37
-1.084287e+000 6.032654e-001 -4.665413e+000 177 111 130
3.850448e-001 9.029025e-001 -5.637845e+000 183 112 129
5.595275e-001 9.839263e-001 -5.664536e+000 134 8 22
2.820187e+000 -2.921536e+000 -9.680327e+000 41 31 41
2.155929e+000 -9.260447e-001 -6.344915e+000 205 177 65
2.526801e+000 -3.178507e-001 -5.390498e+000 235 185 202
2.520035e+000 -2.234707e-001 -5.397855e+000 230 182 190
2.456618e+000 -3.902107e+000 -4.290969e+001 153 182 225
2.543220e+000 -6.839544e-002 -5.330463e+000 190 82 110
2.543220e+000 -6.839544e-002 -5.330463e+000 190 82 110
2.573935e+000 1.133463e-001 -5.244028e+000 232 168 187
2.572835e+000 1.586218e-001 -5.220775e+000 249 156 168
2.572835e+000 1.586218e-001 -5.220775e+000 249 156 168
9.994720e-001 1.580452e+000 -5.788103e+000 190 117 131
2.517448e+000 -2.972302e-001 -5.406331e+000 227 157 174
2.493240e+000 -2.275681e-001 -5.443025e+000 217 38 44
2.557492e+000 2.177430e-002 -5.308557e+000 231 165 180
2.554270e+000 2.129005e-002 -5.306693e+000 231 165 180
2.531130e+000 -2.122144e-001 -5.379626e+000 220 180 189
2.566623e+000 -3.807124e-002 -5.268270e+000 208 46 66
2.586610e+000 8.632471e-002 -5.239317e+000 212 43 79
2.230149e+000 -5.731537e-001 -6.177858e+000 154 125 24
2.241835e+000 -2.596075e-001 -6.159708e+000 164 134 26
-2.424317e+000 3.132444e+000 -1.185141e+001 80 73 84
2.422220e+000 -2.787145e-001 -5.683154e+000 175 143 24
2.422220e+000 -2.787145e-001 -5.683154e+000 175 143 24
2.539214e+000 -1.205364e-001 -5.349954e+000 195 79 113
2.539214e+000 -1.205364e-001 -5.349954e+000 195 79 113
2.537013e+000 -2.624029e-003 -5.347129e+000 199 74 90
1.096071e+000 5.035802e-001 -5.607547e+000 174 69 91
2.637549e+000 3.421191e-001 -5.067845e+000 250 148 75
2.524990e+000 4.206661e-002 -5.363545e+000 255 60 100
2.522477e+000 1.630863e+000 -5.148166e+000 236 206 70
2.599352e+000 1.752667e-001 -5.192652e+000 255 64 106
2.577228e+000 1.000441e-001 -5.202517e+000 255 65 107
-7.365068e-001 1.039008e+000 -1.023437e+001 67 52 60
2.662600e+000 3.884559e-001 -5.024453e+000 228 109 50
2.587455e+000 2.428627e-001 -5.204694e+000 255 198 213
2.570219e+000 1.774063e-001 -5.246292e+000 248 69 109
2.112950e+000 -6.368051e-001 -6.516414e+000 225 194 66
-1.909859e+000 3.463795e+000 -1.101002e+001 18 18 18
1.722982e+000 -4.165189e-001 -7.337343e+000 204 175 51
4.144634e-001 3.269109e-002 -5.997294e+000 77 0 0
-8.187160e-001 -2.959936e-001 -5.077595e+000 18 22 29
-8.187160e-001 -2.959936e-001 -5.077595e+000 18 22 29
-8.335181e-001 4.778947e-001 -4.616381e+000 27 24 32
1.252713e+000 2.000433e-001 -8.408334e+000 14 12 13
1.942286e+000 -8.674419e-001 -6.867696e+000 214 186 51
-8.620611e-001 -3.415839e-001 -5.157253e+000 183 214 248
1.853785e+000 -6.911527e-001 -7.021261e+000 205 179 50
1.556523e+000 -1.351312e-001 -7.767795e+000 163 141 40
-1.894109e+000 3.508907e+000 -1.088854e+001 20 17 19
4.108320e-002 1.170853e+001 -1.106693e+001 99 95 115
1.579266e+000 -4.434916e-001 -7.679369e+000 192 169 53
1.889648e+000 -1.053607e+000 -6.836952e+000 209 182 55
-2.040855e+000 5.498317e+000 -1.095755e+001 0 55 99
9.431678e-001 4.340582e-001 -9.018333e+000 131 125 145
2.275506e+000 -6.867238e-002 -6.092974e+000 189 156 47
2.275506e+000 -6.867238e-002 -6.092974e+000 189 156 47
-8.600529e-001 -2.416537e-001 -5.055063e+000 21 33 77
-7.589150e-001 -2.271370e-001 -5.018965e+000 171 224 254
-8.509012e-001 4.192913e-001 -4.643920e+000 250 255 255
-8.509012e-001 4.192913e-001 -4.643920e+000 250 255 255
-7.597211e-001 1.024369e+000 -1.022824e+001 35 32 34
-2.901705e+000 3.147017e+000 -1.208519e+001 62 62 69
8.929796e-001 3.050294e-001 -9.169370e+000 152 141 157
-2.746894e+000 3.195597e+000 -1.191236e+001 76 70 81
-2.746894e+000 3.195597e+000 -1.191236e+001 76 70 81
1.194406e+000 -1.089047e-001 -8.570836e+000 19 16 22
9.150754e-001 4.673820e-001 -9.098306e+000 137 130 141
8.778181e-001 6.050147e-001 -9.157114e+000 131 122 140
8.778181e-001 6.050147e-001 -9.157114e+000 131 122 140
9.036389e-001 5.745225e-001 -9.091250e+000 129 121 134
9.738995e-001 5.997731e-001 -8.949109e+000 106 98 116
9.738995e-001 5.997731e-001 -8.949109e+000 106 98 116
1.672348e+000 -4.645468e-001 -7.477155e+000 196 174 54
1.753992e+000 -6.327904e-001 -7.282452e+000 151 121 101
1.781104e+000 -5.040739e-001 -7.240518e+000 97 65 42
1.696661e+000 -3.166979e-001 -7.447031e+000 196 174 50
2.160738e+000 -8.121218e-001 -6.343472e+000 165 135 20
2.160738e+000 -8.121218e-001 -6.343472e+000 165 135 20
2.180012e+000 -6.145296e-001 -6.313733e+000 232 197 67
-6.005202e-001 -2.094977e-001 -4.970508e+000 131 82 103
9.396083e-001 2.267727e-001 -9.086652e+000 157 148 161
9.512911e-001 3.379417e-001 -9.040341e+000 143 134 153
1.224019e+000 -9.360820e-002 -8.492828e+000 154 152 169
9.510851e-001 3.687996e-001 -9.030573e+000 139 132 148
-2.343303e+000 3.244104e+000 -1.158112e+001 77 71 82
-2.343303e+000 3.244104e+000 -1.158112e+001 77 71 82
9.921854e-001 4.904087e-001 -8.932905e+000 54 50 67
9.921854e-001 4.904087e-001 -8.932905e+000 54 50 67
1.470394e+000 -3.501721e-001 -7.932542e+000 32 17 0
1.063087e+000 5.359096e-001 -8.784605e+000 36 28 38
2.118364e+000 -8.430203e-001 -6.432696e+000 163 172 126
2.195645e+000 -6.098530e-001 -6.274031e+000 184 153 41
-9.962563e-001 -3.920223e-001 -5.305712e+000 221 170 181
-8.217809e-001 -3.543998e-001 -5.184701e+000 242 236 249
-4.754989e-002 2.481330e-001 -5.578123e+000 200 164 176
-4.754989e-002 2.481330e-001 -5.578123e+000 200 164 176
-4.475359e-002 1.096899e+001 -1.113362e+001 9 9 9
-8.611319e-001 4.374371e-001 -4.703386e+000 68 96 145
-7.971869e-001 4.474585e-001 -4.553808e+000 216 206 238
3.475914e+000 5.646945e+000 -7.060022e+000 114 102 120
2.014467e+000 9.759924e+000 -9.089913e+000 65 37 54
3.093934e+000 7.818660e+000 -8.045705e+000 105 98 117
2.968571e+000 8.774243e+000 -8.231819e+000 47 36 36
1.889231e+000 -1.201105e+000 -6.848202e+000 61 40 0
1.937737e+000 -1.013248e+000 -6.788711e+000 56 25 0
1.558651e+000 5.599605e-003 -7.772282e+000 37 26 1
-7.055066e-001 -2.471766e-001 -5.059857e+000 164 184 222
3.287893e+000 5.735311e+000 -7.664878e+000 112 99 115
3.355596e+000 7.204613e+000 -7.257909e+000 48 36 43
3.549725e-002 -3.214828e-002 -2.593867e-001 0 255 0
3.548002e-002 -3.207666e-002 -3.093866e-001 255 255 0
-5.803448e-001 6.213732e-001 6.461700e-002 255 0 0
-5.775112e-001 6.191556e-001 1.474664e-002 255 255 0
-1.161060e+000 1.418049e-001 -5.894823e-001 0 255 0
-1.149546e+000 1.404774e-001 -6.381204e-001 255 255 0
-1.190882e+000 2.080650e+000 -3.955974e-001 255 0 0
-1.178181e+000 2.070849e+000 -4.429537e-001 255 255 0
-2.226808e+000 -3.483807e+000 -2.221207e+000 0 255 0
-2.208051e+000 -3.451000e+000 -2.253947e+000 255 255 0
-2.308815e-001 -4.706726e+000 -1.847710e+000 255 0 0
-2.285420e-001 -4.668579e+000 -1.879950e+000 255 255 0
