ply
format ascii 1.0
element face 0
property list uchar int vertex_indices
element vertex 852
property float x
property float y
property float z
property uchar diffuse_red
property uchar diffuse_green
property uchar diffuse_blue
end_header
-4.050414e-002 -8.109205e-002 2.757290e+000 61 53 40
1.520343e-002 -2.228417e-001 2.658264e+000 144 136 113
-3.477269e-003 -2.029838e-001 2.667720e+000 146 139 113
-1.000625e-001 -7.458929e-003 2.796541e+000 150 144 124
-1.000625e-001 -7.458929e-003 2.796541e+000 150 144 124
3.580267e-001 -1.356121e-001 3.001211e+000 157 144 127
-1.041657e-001 2.046457e-002 2.824402e+000 151 142 124
4.851897e-002 4.071935e-002 2.986187e+000 85 85 71
-5.199968e-002 -8.945168e-002 2.750430e+000 148 136 118
1.471162e-001 -2.122094e-001 2.772657e+000 156 141 118
1.117741e-001 -7.784754e-002 2.865056e+000 60 63 56
1.430198e-001 -7.098942e-002 2.890524e+000 61 64 55
3.306599e-001 -9.187056e-002 3.037397e+000 116 104 88
3.306599e-001 -9.187056e-002 3.037397e+000 116 104 88
3.154730e-001 2.667953e-002 3.146971e+000 143 132 113
-6.405150e-003 -1.412004e-002 2.855610e+000 156 141 117
1.146908e-001 -1.874449e-001 2.769896e+000 151 137 115
1.146908e-001 -1.874449e-001 2.769896e+000 151 137 115
-3.836761e-003 -5.323250e-002 2.822004e+000 67 56 45
4.475307e-002 -1.505396e-001 2.754922e+000 58 51 40
6.032882e-002 -1.814030e-001 2.740083e+000 64 57 48
8.122953e-002 -1.941498e-001 2.735099e+000 154 141 115
3.400274e-002 -9.119588e-002 2.810848e+000 154 144 118
8.005033e-002 -1.780651e-001 2.760512e+000 66 58 51
8.005033e-002 -1.780651e-001 2.760512e+000 66 58 51
5.927372e-002 -9.036355e-002 2.827567e+000 155 148 127
-1.526522e-003 3.956469e-002 2.925241e+000 154 146 126
-1.526522e-003 3.956469e-002 2.925241e+000 154 146 126
5.672918e-002 -6.580499e-002 2.851141e+000 151 136 116
5.672918e-002 -6.580499e-002 2.851141e+000 151 136 116
5.937073e-002 -4.909768e-002 2.864982e+000 60 57 48
-8.514582e-002 3.390550e-001 3.259495e+000 69 61 46
-7.123804e-002 3.520011e-001 3.285353e+000 157 146 124
4.064903e-001 -2.157291e-001 2.951983e+000 157 143 115
-5.557117e-002 -1.204258e-001 2.709421e+000 64 53 35
4.564626e-003 -1.815426e-002 2.863665e+000 150 144 119
-6.003602e-002 3.692736e-001 3.316088e+000 93 85 71
3.581187e-001 -1.363841e-001 2.998661e+000 157 144 127
1.038405e-001 -1.840412e-001 2.758730e+000 155 140 115
6.015351e-003 4.490411e-002 2.938623e+000 67 61 47
2.701687e-001 -7.566728e-001 3.395412e+000 76 89 98
-3.836761e-003 -5.323250e-002 2.822004e+000 67 56 45
4.463957e-002 -1.504658e-001 2.754954e+000 58 51 40
2.200049e-002 -9.124970e-002 2.800118e+000 156 146 121
2.703188e-001 -4.645948e-001 3.502455e+000 192 199 205
3.371219e-002 -1.126740e-001 2.783357e+000 148 144 127
2.548206e-001 -7.627668e-001 3.382949e+000 180 193 201
2.318396e-001 -2.393748e-001 2.771542e+000 63 64 59
2.318396e-001 -2.393748e-001 2.771542e+000 63 64 59
4.555178e-001 -1.897983e-001 2.990383e+000 106 94 78
8.076010e-002 -1.313552e-001 2.803581e+000 152 143 117
8.500409e-002 -1.017168e-001 2.834403e+000 61 58 50
9.823530e-003 -4.115851e-002 2.843367e+000 151 144 119
-6.209987e-002 -6.728128e-002 2.759070e+000 63 52 34
5.097623e-002 -9.033279e-002 2.821163e+000 152 141 121
7.614660e-002 -1.515981e-001 2.778851e+000 55 50 35
5.550378e-002 1.012213e-002 2.936655e+000 60 61 53
-3.198809e-002 3.231421e-001 3.230331e+000 67 58 41
-1.030352e-001 2.213663e-001 3.058188e+000 154 147 132
2.775506e-001 5.262253e-003 3.090959e+000 155 143 118
4.110883e-002 -3.569168e-002 2.874471e+000 149 142 118
9.540908e-002 -1.577445e-001 2.772038e+000 65 59 52
1.031886e-001 -2.424860e-001 2.675418e+000 67 63 52
-8.513730e-003 6.164331e-002 2.948425e+000 151 141 119
1.835897e-002 -1.323182e-002 2.884680e+000 138 133 105
2.071433e-001 -8.262216e-001 3.326717e+000 192 205 213
1.434384e-001 -7.554245e-001 3.295127e+000 103 118 125
3.282924e-001 -6.454257e-001 3.469265e+000 79 88 95
-6.943765e-003 -6.817001e-001 3.189696e+000 110 123 131
2.727017e-001 -8.035337e-001 3.394118e+000 190 203 210
2.743706e-001 -8.035698e-001 3.393005e+000 190 203 210
2.663416e-001 -6.805367e-001 3.413722e+000 95 109 118
2.442360e-001 -6.794437e-001 3.397102e+000 143 156 164
2.712239e-001 -7.565484e-001 3.397539e+000 76 89 98
-6.856995e-002 -6.590887e-001 3.145812e+000 166 178 185
-8.545928e-002 -6.661448e-001 3.127362e+000 169 181 190
4.749627e-002 -7.175454e-001 3.224584e+000 139 156 164
4.120986e-002 -7.163297e-001 3.224977e+000 139 156 164
-1.025506e-001 -6.669517e-001 3.113384e+000 169 180 189
3.055332e-001 -7.923303e-001 3.422091e+000 199 209 218
2.667513e-001 -7.751899e-001 3.388947e+000 186 199 207
2.945972e-001 -7.729414e-001 3.411173e+000 197 210 219
1.361627e-001 -7.665210e-001 3.290742e+000 174 189 196
3.134450e-002 -7.126060e-001 3.207494e+000 118 135 143
3.177717e-001 -6.320412e-001 3.461870e+000 163 174 180
-1.290939e-002 -3.010408e-001 2.552671e+000 19 7 0
1.501904e-001 -7.552892e-001 3.313941e+000 184 197 206
4.081296e-002 -7.174776e-001 3.215419e+000 185 202 210
-4.277885e-002 -6.742550e-001 3.160474e+000 166 180 187
-3.337662e-002 -6.537870e-001 3.177220e+000 170 183 191
3.299849e-001 -6.827872e-001 3.410169e+000 192 205 211
8.909872e-002 -6.725964e-001 3.292679e+000 179 194 201
-1.800554e+000 9.080453e-001 3.717546e+000 61 89 113
2.239093e-001 -2.294723e-001 2.754997e+000 65 58 46
-1.644565e+000 8.790503e-001 3.804616e+000 61 92 120
-1.868710e+000 9.341283e-001 3.624588e+000 124 143 154
-3.003148e-001 -6.039933e-001 3.029190e+000 138 126 104
7.769570e-002 -4.312917e-001 2.635119e+000 57 44 27
1.937281e-002 1.038963e-001 2.988133e+000 158 142 117
-1.600581e+000 7.794705e-001 3.739199e+000 150 161 165
-1.901296e+000 1.023797e+000 3.606216e+000 78 106 129
2.837565e-001 -8.397150e-001 3.398463e+000 186 199 207
4.695554e-002 -2.374292e-001 2.607041e+000 145 137 115
3.922443e-001 -8.730915e-001 3.364867e+000 200 211 217
-4.628206e-001 -7.299680e-001 2.816829e+000 126 111 88
8.693823e-002 -5.487797e-001 3.029871e+000 111 99 82
-1.388079e+000 8.851989e-001 3.882211e+000 18 45 81
-1.482080e+000 9.324809e-001 3.824398e+000 97 29 28
-1.401898e+000 9.705773e-001 3.804002e+000 9 55 26
-4.392992e-001 -8.356217e-001 2.765446e+000 135 124 102
3.823356e-002 1.836279e-003 2.920739e+000 158 144 118
3.572246e-002 5.021886e-002 2.967951e+000 58 63 52
-8.859952e-002 1.594676e-001 2.996837e+000 64 63 56
-1.565600e+000 7.684129e-001 3.761817e+000 69 96 117
-1.421332e+000 8.590474e-001 3.847537e+000 99 121 144
-1.437072e+000 8.835389e-001 3.834361e+000 17 36 65
-1.408480e+000 9.500757e-001 3.771396e+000 64 106 105
-1.439477e+000 9.817227e-001 3.773332e+000 12 62 43
-4.653153e-001 -7.263580e-001 2.825253e+000 129 117 94
-4.298545e-001 -7.028044e-001 2.798027e+000 131 118 97
2.007939e-001 -6.070947e-001 3.321812e+000 89 83 73
1.992369e-001 -6.067004e-001 3.321827e+000 89 83 73
-5.010469e-001 -5.531920e-001 2.929862e+000 128 121 99
1.145798e-001 -5.582052e-001 3.066862e+000 128 113 92
-1.763900e-001 -5.660500e-001 2.831633e+000 122 76 68
7.907708e-002 -4.751015e-001 2.789537e+000 60 48 32
2.783147e-001 -4.636583e-001 2.909880e+000 80 64 46
2.461172e-001 -4.415622e-001 2.822807e+000 126 109 83
3.260977e-001 -4.182439e-001 2.861110e+000 66 53 36
1.516355e-001 -4.133328e-001 2.687728e+000 76 63 47
1.015315e-001 -2.160191e-001 2.726241e+000 93 87 81
1.224906e-001 -2.155330e-001 2.734515e+000 150 148 134
4.002465e-001 -1.114268e-001 3.041350e+000 142 134 115
9.512942e-002 -3.372449e-002 2.912808e+000 78 70 51
-1.514945e+000 8.922757e-001 3.801978e+000 88 107 121
-1.421063e+000 1.019760e+000 3.791377e+000 46 90 80
7.479162e-003 -6.416900e-001 3.258714e+000 172 183 189
3.248399e-003 -6.222407e-001 3.167224e+000 78 68 51
-2.446711e-002 -6.239072e-001 3.129814e+000 85 76 61
-2.446711e-002 -6.239072e-001 3.129814e+000 85 76 61
-6.366998e-002 -6.243996e-001 3.109492e+000 90 82 63
-9.436832e-002 -6.262066e-001 3.074368e+000 112 102 85
-1.406062e-001 -6.261106e-001 3.031176e+000 92 84 66
-1.868123e-001 -6.147903e-001 3.048692e+000 85 79 63
-1.722356e-001 -6.284191e-001 2.998230e+000 90 83 65
-4.260490e-001 -6.394399e-001 2.826562e+000 131 124 105
8.304762e-003 -5.336812e-001 2.881784e+000 129 114 93
4.675942e-002 -4.584004e-001 2.728226e+000 123 106 81
4.675942e-002 -4.584004e-001 2.728226e+000 123 106 81
7.399008e-002 -4.398141e-001 2.695086e+000 123 106 80
3.577298e-001 -4.227002e-001 2.853619e+000 126 109 84
9.857264e-002 -4.191703e-001 2.657872e+000 129 112 86
-8.683604e-002 1.661104e-001 3.002054e+000 65 63 52
-1.352755e+000 8.541374e-001 3.905667e+000 123 132 149
-1.881576e+000 9.210658e-001 3.615077e+000 143 160 171
-1.689493e+000 9.512817e-001 3.747863e+000 134 162 183
-1.404068e+000 9.503852e-001 3.808916e+000 3 37 14
-1.421268e+000 9.792124e-001 3.781735e+000 9 60 33
-1.421268e+000 9.792124e-001 3.781735e+000 9 60 33
-5.768775e-002 -6.595956e-001 3.150721e+000 164 176 184
-1.503181e-001 -6.150372e-001 3.079184e+000 95 84 66
-1.539836e-001 -6.154680e-001 2.985062e+000 134 121 102
-4.315681e-002 -5.749716e-001 2.985494e+000 125 114 96
2.135800e-001 -5.572788e-001 3.162193e+000 87 74 58
-4.780208e-002 -5.633325e-001 2.956837e+000 123 113 95
-9.865958e-002 -5.603658e-001 2.898699e+000 129 118 96
-1.763833e-002 -5.541224e-001 2.947264e+000 120 111 94
1.536763e-001 -5.424728e-001 3.061156e+000 91 79 66
-6.767055e-002 -5.419538e-001 2.850378e+000 126 112 90
-5.185074e-002 -5.311413e-001 2.827587e+000 130 116 91
1.559134e-001 -5.115530e-001 2.963315e+000 128 113 92
1.822522e-003 -4.951548e-001 2.797596e+000 126 110 84
1.032447e-001 -4.601996e-001 2.790169e+000 124 109 86
9.695914e-002 -2.288491e-001 2.706937e+000 147 136 112
9.695914e-002 -2.288491e-001 2.706937e+000 147 136 112
6.628643e-003 -2.312830e-001 2.627970e+000 145 136 107
1.151113e-001 -1.588676e-001 2.781865e+000 62 57 47
-2.663876e-002 -1.358605e-001 2.713521e+000 154 142 119
6.803626e-002 -1.242265e-001 2.790117e+000 65 62 53
-9.598476e-003 -2.808057e-002 2.853908e+000 67 63 50
-4.738741e-002 1.525551e-001 3.018535e+000 71 64 54
-1.415444e-001 2.200845e-001 3.023246e+000 160 148 125
-1.964054e+000 9.533511e-001 3.562097e+000 124 156 177
-1.392763e+000 9.529441e-001 3.822465e+000 79 109 103
-1.397309e+000 1.001014e+000 3.803607e+000 97 133 126
2.862339e-001 -7.659083e-001 3.435481e+000 197 210 219
1.749276e-001 -7.303517e-001 3.344422e+000 188 205 213
1.835690e-001 -7.353546e-001 3.331896e+000 188 205 213
3.056905e-001 -6.255969e-001 3.482471e+000 163 174 180
-2.689918e-002 -6.482781e-001 3.191708e+000 166 176 185
9.043293e-002 -6.254223e-001 3.251128e+000 119 110 93
-3.703068e-002 -6.208955e-001 3.110990e+000 74 62 46
2.489648e-002 -6.130274e-001 3.155459e+000 127 116 97
-1.407593e-001 -6.038036e-001 2.964172e+000 135 124 105
-8.179263e-002 -5.984088e-001 3.013677e+000 81 74 56
2.757954e-001 -5.585928e-001 3.239693e+000 126 114 93
1.084074e-001 -5.644701e-001 3.084611e+000 127 114 95
2.450029e-002 -5.651004e-001 3.028021e+000 80 68 54
1.828226e-001 -5.585975e-001 3.136571e+000 74 66 49
1.228859e-001 -5.572427e-001 3.089763e+000 75 62 45
-3.866214e-002 -5.674503e-001 2.946526e+000 122 114 95
8.971627e-002 -5.531679e-001 3.051518e+000 82 70 54
7.722976e-002 -5.551023e-001 3.037149e+000 79 66 50
2.442652e-002 -5.320936e-001 2.915828e+000 95 84 66
-5.697066e-003 -5.363979e-001 2.876161e+000 99 88 70
9.663261e-002 -5.114106e-001 2.905945e+000 125 110 89
6.172506e-002 -4.998630e-001 2.851169e+000 124 109 90
9.164802e-002 -4.746102e-001 2.810595e+000 125 110 89
9.399545e-003 -4.523164e-001 2.710716e+000 121 105 82
1.470106e-001 -4.386861e-001 2.735092e+000 119 107 84
1.470106e-001 -4.386861e-001 2.735092e+000 119 107 84
4.198590e-002 -4.384601e-001 2.660949e+000 125 111 87
7.231568e-002 -4.157486e-001 2.614247e+000 121 107 81
7.231568e-002 -4.157486e-001 2.614247e+000 121 107 81
5.865272e-003 -2.191712e-001 2.645902e+000 71 60 52
6.141059e-002 -1.341246e-001 2.781698e+000 146 139 118
6.141059e-002 -1.341246e-001 2.781698e+000 146 139 118
6.141059e-002 -1.341246e-001 2.781698e+000 146 139 118
-5.054329e-002 -7.161907e-002 2.763487e+000 149 140 117
2.473045e-002 -3.925527e-002 2.859866e+000 157 147 122
-1.178513e-002 -4.752084e-003 2.853102e+000 64 61 49
8.109334e-002 5.077011e-003 2.944705e+000 67 62 56
-5.816797e-002 1.192935e-001 2.981697e+000 55 55 44
-7.307127e-002 1.335049e-001 2.966148e+000 71 64 50
-5.785021e-002 1.490567e-001 3.011616e+000 152 142 117
-1.039581e-001 1.892058e-001 3.019345e+000 151 146 118
-1.726768e+000 5.951560e-001 3.897234e+000 104 139 176
-1.726768e+000 5.951560e-001 3.897234e+000 104 139 176
-1.535122e+000 8.796515e-001 3.785481e+000 101 127 142
-1.723948e+000 9.460943e-001 3.721477e+000 120 153 172
4.428882e-001 -6.919095e-001 3.556472e+000 155 150 128
-1.065837e-002 -6.598597e-001 3.195423e+000 166 180 186
-1.123172e-001 -6.496011e-001 3.111241e+000 158 168 176
-5.999414e-002 -6.465777e-001 3.153034e+000 67 73 74
9.025869e-002 -6.088534e-001 3.222873e+000 124 115 98
-7.375054e-002 -6.172027e-001 3.062975e+000 132 121 103
-7.736387e-002 -6.071472e-001 3.058122e+000 87 75 59
-8.979488e-002 -6.079085e-001 3.020931e+000 130 122 104
1.405151e-001 -6.092662e-001 3.084120e+000 86 80 67
1.405151e-001 -6.092662e-001 3.084120e+000 86 80 67
1.511017e-001 -5.729707e-001 3.151595e+000 125 115 97
1.130322e-001 -5.746535e-001 3.122773e+000 91 85 72
1.164738e-001 -5.766585e-001 3.117879e+000 91 85 72
1.168079e-001 -5.715419e-001 3.104527e+000 52 46 32
1.947735e-001 -5.553815e-001 3.154931e+000 80 68 52
4.865645e-002 -5.244805e-001 2.926801e+000 127 112 91
-1.451957e-002 -5.257601e-001 2.868990e+000 129 114 93
-2.065590e-002 -5.286518e-001 2.852570e+000 124 110 87
1.084025e-001 -5.143745e-001 2.952064e+000 119 107 85
1.104534e-001 -5.128619e-001 2.925717e+000 128 113 92
-6.301467e-003 -5.172622e-001 2.843927e+000 119 108 89
-1.278509e-003 -5.002400e-001 2.794097e+000 129 114 91
-4.047831e-002 -4.962450e-001 2.784333e+000 123 111 89
-9.144480e-003 -4.830290e-001 2.739435e+000 122 109 87
-9.144480e-003 -4.830290e-001 2.739435e+000 122 109 87
1.755562e-001 -4.727780e-001 2.872923e+000 122 107 86
1.755562e-001 -4.727780e-001 2.872923e+000 122 107 86
2.155260e-002 -4.638480e-001 2.717022e+000 120 105 86
2.042310e-001 -4.542293e-001 2.836860e+000 122 107 85
2.030382e-001 -4.535281e-001 2.838527e+000 122 107 85
2.063368e-001 -4.420287e-001 2.824509e+000 124 109 86
1.555851e-001 -4.424827e-001 2.781607e+000 123 108 85
1.852676e-001 -4.365694e-001 2.757096e+000 124 108 85
1.792894e-001 -4.335009e-001 2.763647e+000 124 108 85
1.704494e-001 -4.226890e-001 2.728378e+000 117 102 81
4.866323e-001 -3.848288e-001 2.838255e+000 142 126 100
4.658205e-001 -3.858873e-001 2.821026e+000 144 128 103
4.960272e-001 -3.831514e-001 2.847078e+000 141 125 100
2.936820e-001 -3.836666e-001 2.697649e+000 133 117 93
3.807964e-001 -1.631428e-001 2.968423e+000 153 139 119
-6.528497e-002 -7.247513e-002 2.750150e+000 150 144 123
-5.649413e-002 -5.746055e-002 2.787691e+000 63 54 42
-5.649413e-002 -5.746055e-002 2.787691e+000 63 54 42
-7.068397e-002 -3.860269e-002 2.787337e+000 68 58 47
-6.506589e-002 -3.001586e-002 2.800220e+000 156 143 125
-1.561301e-002 6.065254e-002 2.939938e+000 150 140 115
-9.765907e-002 1.954071e-001 3.025066e+000 72 65 54
-1.977836e-002 4.400382e-001 3.371570e+000 85 77 58
2.812815e-001 -8.227470e-001 3.329002e+000 193 206 215
2.876950e-001 -7.825487e-001 3.433602e+000 199 211 219
2.633200e-001 -6.805348e-001 3.418101e+000 191 205 214
3.238096e-001 -6.498117e-001 3.496391e+000 192 201 206
3.346754e-001 -6.556713e-001 3.480634e+000 192 201 206
3.214631e-001 -6.523142e-001 3.469916e+000 111 120 127
-1.248066e-001 -6.490555e-001 3.097084e+000 151 159 163
1.278102e-001 -6.168923e-001 3.272389e+000 112 106 90
9.309009e-002 -6.194826e-001 3.238453e+000 130 121 105
8.046764e-002 -6.205877e-001 3.222621e+000 129 120 103
4.826291e-002 -6.153471e-001 3.187006e+000 56 49 36
-5.299791e-002 -6.143848e-001 3.081578e+000 132 120 102
-5.216068e-002 -6.147017e-001 3.081776e+000 132 120 102
1.884377e-001 -5.931976e-001 3.241000e+000 54 48 34
1.884377e-001 -5.931976e-001 3.241000e+000 54 48 34
-1.368170e-002 -5.803147e-001 3.037715e+000 128 117 97
2.515350e-001 -5.617786e-001 3.223037e+000 124 113 96
2.440093e-001 -5.607709e-001 3.174965e+000 130 116 98
2.329355e-001 -5.559163e-001 3.191172e+000 130 116 98
-4.840587e-002 -5.690953e-001 2.939354e+000 79 71 54
2.574070e-001 -4.749025e-001 3.552091e+000 195 202 208
2.563974e-001 -5.204023e-001 3.059117e+000 65 51 33
-8.457141e-003 -5.244331e-001 2.876560e+000 129 114 95
2.208543e-001 -5.100066e-001 3.032404e+000 116 101 82
4.508384e-002 -5.152492e-001 2.900539e+000 123 110 90
8.249271e-002 -4.986666e-001 2.883769e+000 118 105 86
8.690527e-002 -5.012260e-001 2.877643e+000 118 105 86
1.594535e-001 -4.969680e-001 2.922236e+000 124 109 90
8.240646e-002 -4.953884e-001 2.866750e+000 127 111 95
1.521805e-001 -4.909503e-001 2.900415e+000 125 113 90
1.521805e-001 -4.909503e-001 2.900415e+000 125 113 90
1.719671e-001 -4.746672e-001 2.852880e+000 127 115 93
2.188621e-001 -4.612118e-001 2.892356e+000 119 105 86
2.273801e-001 -4.649595e-001 2.881724e+000 119 105 86
2.273801e-001 -4.649595e-001 2.881724e+000 119 105 86
4.185230e-003 -4.632366e-001 2.715940e+000 121 105 86
5.345802e-002 -4.395500e-001 2.672737e+000 126 114 92
5.362454e-002 -4.396754e-001 2.668782e+000 126 114 92
3.083333e-001 -4.277109e-001 2.839631e+000 121 106 87
3.286478e-001 -4.174770e-001 2.812880e+000 126 111 91
3.286478e-001 -4.174770e-001 2.812880e+000 126 111 91
4.205313e-001 -4.144405e-001 2.870128e+000 67 51 27
2.985606e-001 -4.169403e-001 2.786807e+000 127 110 90
2.975143e-001 -4.164242e-001 2.789291e+000 127 110 90
3.773390e-001 -3.834866e-001 2.762760e+000 144 128 105
3.442625e-001 -3.821651e-001 2.737992e+000 135 119 98
7.560721e-002 -1.437506e-001 2.782144e+000 168 161 143
6.373172e-002 -1.096791e-001 2.807647e+000 145 140 122
6.373172e-002 -1.096791e-001 2.807647e+000 145 140 122
7.446342e-002 -1.028865e-001 2.826780e+000 134 130 114
1.243924e-002 7.081364e-003 2.902054e+000 144 140 119
1.243924e-002 7.081364e-003 2.902054e+000 144 140 119
-4.228482e-002 7.208180e-002 2.935481e+000 62 54 43
3.198716e-002 -5.904112e-001 3.080296e+000 131 114 88
9.409971e-003 -6.560975e-001 3.238163e+000 184 194 203
2.399046e-001 -6.928735e-001 3.436980e+000 201 214 223
9.501931e-002 -4.345629e-001 2.718469e+000 124 103 76
3.177803e-001 -4.063070e-001 2.875353e+000 91 82 65
2.531812e-001 -5.196371e-001 3.036127e+000 133 112 86
1.379168e-002 -5.053514e-001 2.783841e+000 119 99 72
2.337629e-001 -8.276658e-001 3.418320e+000 198 210 216
3.738486e-002 -6.454714e-001 3.264643e+000 182 195 203
-8.357433e-002 -6.413723e-001 3.138678e+000 87 97 99
6.245623e-003 -5.439767e-001 2.882659e+000 125 108 84
5.688359e-001 -3.364177e-001 2.998811e+000 143 128 106
2.844219e-002 -7.034166e-001 3.237244e+000 170 187 197
-4.532346e-002 -6.282671e-001 3.124168e+000 131 115 92
-7.578135e-002 -6.303628e-001 3.091546e+000 133 117 92
-1.227055e-001 -6.269504e-001 3.047551e+000 83 70 55
-6.838989e-002 -6.244487e-001 3.078784e+000 107 97 79
-1.626950e-001 -5.542080e-001 2.786691e+000 157 169 173
3.269464e-003 -5.487605e-001 2.861929e+000 106 94 77
-1.393730e-003 -5.385622e-001 2.851214e+000 126 109 84
9.396105e-002 -5.266251e-001 2.887094e+000 54 42 18
1.350767e-001 -4.979638e-001 2.882738e+000 124 102 79
2.555629e-001 -4.575439e-001 2.904948e+000 123 108 75
2.555629e-001 -4.575439e-001 2.904948e+000 123 108 75
5.031014e-001 -3.416124e-001 2.947504e+000 142 128 102
2.602058e-001 -3.495467e-001 2.742354e+000 142 125 100
5.524710e-001 -3.359166e-001 2.988207e+000 148 133 108
1.372255e-001 -7.598250e-001 3.335703e+000 196 213 221
1.823991e-001 -5.158828e-001 2.967620e+000 128 110 84
1.094351e-001 -5.031643e-001 2.871193e+000 126 109 77
7.808381e-002 -4.991567e-001 2.827790e+000 120 106 77
2.526327e-001 -4.495404e-001 2.886959e+000 115 99 73
2.382082e-001 -4.496632e-001 2.874221e+000 121 105 78
2.382082e-001 -4.496632e-001 2.874221e+000 121 105 78
1.836123e-001 -4.380630e-001 2.814799e+000 116 99 73
1.836123e-001 -4.380630e-001 2.814799e+000 116 99 73
1.836123e-001 -4.380630e-001 2.814799e+000 116 99 73
1.617642e-001 -4.112009e-001 2.740907e+000 116 100 77
2.964388e-001 -3.961885e-001 2.836609e+000 116 100 74
2.964388e-001 -3.961885e-001 2.836609e+000 116 100 74
2.389980e-001 -7.205882e-001 3.431410e+000 195 208 217
6.536315e-002 -6.249832e-001 3.234734e+000 69 59 47
1.301813e-001 -6.168519e-001 3.269608e+000 131 120 100
-1.494924e-001 -6.154839e-001 2.963055e+000 63 55 37
-1.377161e-001 -6.070051e-001 2.942539e+000 56 47 37
2.360494e-001 -4.609533e-001 3.475780e+000 197 204 210
2.088638e-001 -5.776290e-001 3.171725e+000 59 52 35
1.603063e-001 -5.699581e-001 3.141484e+000 130 116 91
8.781523e-002 -5.606736e-001 3.001182e+000 126 114 92
2.260935e-001 -5.165948e-001 3.025909e+000 129 113 91
-1.762866e-002 -5.232661e-001 2.805042e+000 118 103 79
-3.746811e-002 -5.227610e-001 2.781989e+000 118 103 78
2.211365e-001 -5.129952e-001 2.998230e+000 127 111 86
-3.150301e-002 -5.196826e-001 2.772426e+000 119 103 76
4.624060e-002 -5.102476e-001 2.826885e+000 122 104 79
4.624060e-002 -5.102476e-001 2.826885e+000 122 104 79
1.678438e-001 -4.953137e-001 2.905210e+000 125 109 84
1.252125e-001 -4.759760e-001 2.817851e+000 123 105 81
6.349743e-003 -4.776932e-001 2.712857e+000 118 103 79
1.958678e-001 -4.548489e-001 2.846062e+000 120 106 80
1.738108e-001 -4.547840e-001 2.827896e+000 114 100 74
9.967257e-002 -4.588790e-001 2.763048e+000 114 103 78
2.245190e-001 -4.489167e-001 2.861154e+000 121 105 79
2.095974e-001 -4.490710e-001 2.847680e+000 114 100 71
2.095974e-001 -4.490710e-001 2.847680e+000 114 100 71
1.770276e-001 -4.485847e-001 2.824223e+000 116 100 72
1.651564e-001 -4.496714e-001 2.809235e+000 116 103 76
1.651564e-001 -4.496714e-001 2.809235e+000 116 103 76
2.045872e-002 -4.480304e-001 2.676924e+000 50 39 28
1.155437e-001 -4.429189e-001 2.752541e+000 119 102 79
1.155437e-001 -4.429189e-001 2.752541e+000 119 102 79
1.519852e-001 -4.249948e-001 2.752941e+000 122 104 80
3.836766e-002 -4.213200e-001 2.648583e+000 44 36 25
2.072225e-001 -4.157768e-001 2.786844e+000 120 106 80
2.127196e-001 -4.151864e-001 2.790262e+000 121 107 84
2.127196e-001 -4.151864e-001 2.790262e+000 121 107 84
1.173674e-001 -4.139890e-001 2.712456e+000 119 101 77
1.173674e-001 -4.139890e-001 2.712456e+000 119 101 77
3.059329e-001 -4.057675e-001 2.858601e+000 122 107 84
1.337528e-001 -4.068335e-001 2.709908e+000 51 35 25
3.287712e-001 -3.943648e-001 2.859869e+000 120 105 78
3.287712e-001 -3.943648e-001 2.859869e+000 120 105 78
2.347608e-001 -3.957417e-001 2.781841e+000 114 98 72
2.347608e-001 -3.957417e-001 2.781841e+000 114 98 72
2.256714e-001 -3.960173e-001 2.773238e+000 121 105 79
2.256714e-001 -3.960173e-001 2.773238e+000 121 105 79
1.687772e-001 -3.936206e-001 2.717557e+000 57 45 28
5.623186e-002 -3.944147e-001 2.620205e+000 59 42 30
5.623186e-002 -3.944147e-001 2.620205e+000 59 42 30
2.683825e-001 -7.755404e-001 3.461294e+000 201 215 225
2.713212e-001 -7.593186e-001 3.460794e+000 200 217 227
1.348627e-001 -7.400794e-001 3.332687e+000 192 209 217
1.369904e-001 -7.278301e-001 3.338508e+000 192 206 215
3.167923e-001 -6.233125e-001 3.510990e+000 191 200 207
-9.495125e-002 -6.439816e-001 3.133090e+000 151 163 169
1.440931e-001 -6.154504e-001 3.281782e+000 134 123 103
1.053681e-001 -6.179708e-001 3.245577e+000 132 124 101
-8.379177e-002 -6.266596e-001 3.075738e+000 125 114 96
-4.234253e-002 -6.020212e-001 3.034611e+000 135 123 101
-9.810420e-003 -5.967873e-001 3.029367e+000 135 121 102
-9.422383e-002 -5.936440e-001 2.936560e+000 133 120 102
-7.530563e-002 -5.921406e-001 2.948283e+000 134 119 98
-7.530563e-002 -5.921406e-001 2.948283e+000 134 119 98
3.770873e-003 -5.879716e-001 3.015075e+000 128 115 96
1.505856e-001 -5.755065e-001 3.119540e+000 128 115 96
1.960166e-001 -5.718841e-001 3.156743e+000 128 115 96
-7.178719e-002 -5.844808e-001 2.922240e+000 127 112 93
-8.180908e-002 -5.845471e-001 2.915840e+000 125 112 93
3.544048e-003 -5.734718e-001 2.962615e+000 122 108 89
1.022870e-001 -5.604860e-001 3.014308e+000 119 108 83
6.475394e-002 -5.612690e-001 2.976952e+000 130 115 92
2.326120e-002 -5.634781e-001 2.938390e+000 118 105 86
1.678276e-001 -5.517280e-001 3.062223e+000 130 114 91
-1.425064e-002 -5.553028e-001 2.904039e+000 125 109 90
-5.608905e-003 -5.599909e-001 2.891343e+000 124 109 86
4.787923e-002 -5.501959e-001 2.930499e+000 117 106 88
4.787923e-002 -5.501959e-001 2.930499e+000 117 106 88
5.111065e-003 -5.498075e-001 2.894348e+000 128 113 93
8.001616e-002 -5.509333e-001 2.941353e+000 126 110 85
2.329437e-002 -5.294917e-001 2.856685e+000 125 108 88
1.774650e-002 -5.292489e-001 2.852438e+000 115 100 79
-5.409709e-002 -5.306380e-001 2.795681e+000 49 38 20
1.641526e-001 -5.245994e-001 2.972431e+000 58 43 24
1.641526e-001 -5.245994e-001 2.972431e+000 58 43 24
-2.187393e-002 -5.286587e-001 2.817539e+000 127 111 89
1.955728e-001 -5.200389e-001 2.996772e+000 123 111 89
1.523086e-001 -5.089482e-001 2.922567e+000 122 107 86
9.917040e-002 -4.852302e-001 2.822724e+000 127 107 80
1.750722e-001 -4.724052e-001 2.863793e+000 116 100 76
2.660281e-001 -4.630777e-001 2.931648e+000 122 106 83
1.756810e-001 -4.659802e-001 2.852273e+000 122 107 88
2.670984e-001 -4.499629e-001 2.910898e+000 47 36 19
2.670984e-001 -4.499629e-001 2.910898e+000 47 36 19
1.075025e-001 -4.542245e-001 2.764152e+000 45 32 15
2.583094e-001 -4.472528e-001 2.891149e+000 123 108 81
2.460336e-001 -4.481173e-001 2.877825e+000 127 112 85
1.056533e-001 -4.504607e-001 2.757498e+000 121 106 82
9.718071e-002 -4.509871e-001 2.748572e+000 121 105 80
9.718071e-002 -4.509871e-001 2.748572e+000 121 105 80
1.064619e-001 -4.434970e-001 2.743965e+000 117 100 78
1.064619e-001 -4.434970e-001 2.743965e+000 117 100 78
1.433983e-001 -4.288055e-001 2.763052e+000 120 101 77
5.799315e-002 -4.339923e-001 2.680235e+000 117 101 82
5.799315e-002 -4.339923e-001 2.680235e+000 117 101 82
1.615744e-001 -4.239033e-001 2.759726e+000 122 107 83
2.754925e-001 -4.130265e-001 2.850607e+000 119 103 84
2.282838e-001 -4.151210e-001 2.806984e+000 112 98 77
2.565844e-001 -4.105472e-001 2.824523e+000 117 102 81
2.565844e-001 -4.105472e-001 2.824523e+000 117 102 81
1.792217e-001 -4.117779e-001 2.752702e+000 118 103 81
1.792217e-001 -4.117779e-001 2.752702e+000 118 103 81
5.705836e-002 -4.111048e-001 2.653226e+000 122 110 88
2.618033e-001 -4.037561e-001 2.818724e+000 115 100 80
3.104037e-001 -4.003864e-001 2.857912e+000 116 104 82
2.269830e-001 -3.992814e-001 2.781589e+000 59 44 25
2.269830e-001 -3.992814e-001 2.781589e+000 59 44 25
1.402263e-001 -4.025157e-001 2.704759e+000 107 94 76
1.402263e-001 -4.025157e-001 2.704759e+000 107 94 76
1.889758e-001 -3.963215e-001 2.740354e+000 119 101 76
1.805233e-001 -3.957985e-001 2.734286e+000 123 106 87
2.763539e-001 -7.561640e-001 3.465341e+000 199 213 222
2.235054e-001 -7.412958e-001 3.419808e+000 188 203 212
-6.679633e-002 -6.760379e-001 3.152064e+000 175 190 197
9.437572e-002 -6.221619e-001 3.270437e+000 71 63 43
9.658888e-002 -6.237482e-001 3.259639e+000 138 127 110
9.658888e-002 -6.237482e-001 3.259639e+000 138 127 110
9.183877e-002 -6.184804e-001 3.232556e+000 135 126 104
9.183877e-002 -6.184804e-001 3.232556e+000 135 126 104
1.814692e-001 -6.108479e-001 3.313104e+000 72 62 52
1.176311e-001 -6.136506e-001 3.252438e+000 65 55 42
-8.889332e-003 -6.229879e-001 3.136326e+000 128 118 103
-8.889332e-003 -6.229879e-001 3.136326e+000 128 118 103
1.432433e-002 -6.197361e-001 3.156061e+000 82 69 51
-2.355354e-002 -6.208362e-001 3.118573e+000 63 51 36
1.544628e-001 -6.099823e-001 3.269584e+000 122 117 101
-3.925575e-002 -6.152937e-001 3.075666e+000 71 58 41
1.997314e-001 -5.815600e-001 3.280694e+000 135 120 100
-3.428920e-002 -6.082558e-001 3.040877e+000 135 119 95
-7.128105e-002 -6.032797e-001 2.981306e+000 130 115 96
-5.937234e-002 -5.908798e-001 2.966651e+000 137 122 103
1.747471e-001 -5.756249e-001 3.150412e+000 119 106 88
2.656837e-001 -5.734547e-001 3.222725e+000 73 61 45
2.235636e-001 -5.739359e-001 3.186842e+000 61 49 33
-9.838109e-003 -5.824533e-001 2.978833e+000 132 117 98
1.229010e-001 -5.752427e-001 3.087288e+000 133 120 100
1.229010e-001 -5.752427e-001 3.087288e+000 133 120 100
2.082286e-001 -5.678856e-001 3.147543e+000 127 115 99
2.812081e-001 -5.630788e-001 3.211432e+000 128 117 99
1.964722e-001 -5.674366e-001 3.137191e+000 117 109 94
1.856113e-001 -5.629721e-001 3.117395e+000 125 111 90
7.569980e-003 -5.639575e-001 2.927632e+000 122 107 88
7.569980e-003 -5.639575e-001 2.927632e+000 122 107 88
-6.271354e-002 -5.623539e-001 2.867009e+000 132 118 97
1.076840e-001 -5.562018e-001 3.006360e+000 122 111 89
9.367723e-003 -5.312403e-001 2.842203e+000 129 114 93
1.067481e-001 -5.237584e-001 2.916626e+000 58 42 24
1.454144e-001 -5.213350e-001 2.944564e+000 59 45 22
2.305589e-001 -5.162178e-001 3.017216e+000 128 113 91
2.012490e-001 -5.153019e-001 2.993008e+000 123 109 86
-1.166718e-002 -5.253153e-001 2.809504e+000 50 33 13
9.061832e-002 -5.199848e-001 2.889863e+000 117 105 81
-3.073495e-002 -5.190198e-001 2.784267e+000 56 41 27
1.202822e-001 -5.039514e-001 2.877941e+000 42 29 7
-4.874207e-003 -5.019971e-001 2.760611e+000 55 42 25
-4.874207e-003 -5.019971e-001 2.760611e+000 55 42 25
-1.028587e-002 -5.017647e-001 2.755307e+000 47 34 18
6.620276e-002 -4.868252e-001 2.789551e+000 40 29 17
6.620276e-002 -4.868252e-001 2.789551e+000 40 29 17
7.472940e-002 -4.864072e-001 2.796312e+000 35 27 17
7.223779e-002 -4.827127e-001 2.780610e+000 53 41 24
1.704431e-001 -4.769819e-001 2.864816e+000 52 36 21
1.704431e-001 -4.769819e-001 2.864816e+000 52 36 21
1.857601e-001 -4.718490e-001 2.872324e+000 116 101 79
8.303659e-002 -4.760540e-001 2.784625e+000 40 32 16
3.175951e-001 -4.638781e-001 2.984412e+000 65 52 38
3.175951e-001 -4.638781e-001 2.984412e+000 65 52 38
3.597476e-002 -4.712022e-001 2.735253e+000 56 44 28
3.597476e-002 -4.712022e-001 2.735253e+000 56 44 28
2.652436e-001 -4.594461e-001 2.926132e+000 43 35 18
2.652436e-001 -4.594461e-001 2.926132e+000 43 35 18
1.950751e-001 -4.638037e-001 2.863513e+000 120 107 89
1.950751e-001 -4.638037e-001 2.863513e+000 120 107 89
2.251537e-001 -4.591412e-001 2.886872e+000 129 117 95
2.251537e-001 -4.591412e-001 2.886872e+000 129 117 95
1.248870e-001 -4.576146e-001 2.785778e+000 119 106 81
2.642477e-001 -4.507541e-001 2.905177e+000 130 113 98
3.343242e-002 -4.605377e-001 2.703957e+000 48 34 15
2.680686e-002 -4.593911e-001 2.698489e+000 53 40 23
4.004443e-002 -4.554175e-001 2.706000e+000 110 97 75
4.004443e-002 -4.554175e-001 2.706000e+000 110 97 75
1.696074e-001 -4.381049e-001 2.797616e+000 37 26 9
1.696074e-001 -4.381049e-001 2.797616e+000 37 26 9
1.613480e-001 -4.401040e-001 2.787058e+000 37 29 10
3.989738e-002 -4.384808e-001 2.678705e+000 49 36 19
6.334912e-002 -4.299532e-001 2.681662e+000 54 42 24
4.816178e-002 -4.282367e-001 2.664815e+000 50 39 18
5.020422e-002 -4.233784e-001 2.664124e+000 110 99 78
5.020422e-002 -4.233784e-001 2.664124e+000 110 99 78
2.361523e-001 -4.161360e-001 2.813163e+000 121 109 86
1.858191e-001 -4.168864e-001 2.770735e+000 120 105 84
2.482194e-001 -4.116971e-001 2.817897e+000 118 106 83
1.239381e-001 -4.159779e-001 2.714924e+000 51 37 24
3.254255e-001 -4.099384e-001 2.879365e+000 49 37 21
2.000474e-001 -4.133922e-001 2.773903e+000 51 39 21
5.139504e-002 -4.151757e-001 2.654326e+000 50 36 21
2.741600e-001 -4.074940e-001 2.832707e+000 54 40 28
2.741600e-001 -4.074940e-001 2.832707e+000 54 40 28
7.698480e-002 -4.093219e-001 2.661238e+000 62 46 26
2.678514e-001 -4.006617e-001 2.818495e+000 55 39 22
2.551694e-001 -4.031805e-001 2.805135e+000 50 37 16
1.306205e-001 -4.048994e-001 2.704039e+000 109 98 78
6.796112e-002 -4.078130e-001 2.650585e+000 116 100 77
1.804275e-001 -4.018660e-001 2.737294e+000 62 45 26
1.498686e-001 -3.988674e-001 2.711521e+000 49 35 18
1.498686e-001 -3.988674e-001 2.711521e+000 49 35 18
1.384891e-001 -3.966036e-001 2.700317e+000 43 31 12
1.384891e-001 -3.966036e-001 2.700317e+000 43 31 12
-1.389650e-001 2.375435e-001 3.059590e+000 45 42 31
-1.154991e-002 -8.460679e-002 2.783436e+000 130 113 93
-4.388437e-002 -2.066427e-001 2.663441e+000 124 108 85
-2.980379e-002 -1.687293e-001 2.704080e+000 121 113 102
-6.846294e-002 -1.427470e-001 2.696356e+000 128 114 88
3.603038e-001 -1.095000e-001 3.007899e+000 94 80 70
3.603038e-001 -1.095000e-001 3.007899e+000 94 80 70
-1.106270e-001 -4.786536e-002 2.744739e+000 128 116 94
-1.278308e-001 2.549787e-001 3.089279e+000 104 101 90
4.122999e-001 -6.458024e-001 3.497981e+000 190 203 210
4.396549e-001 -1.658179e-001 3.009241e+000 99 87 71
4.396549e-001 -1.658179e-001 3.009241e+000 99 87 71
4.268136e-001 -1.329054e-001 3.028797e+000 133 122 104
1.344986e-001 -9.809839e-002 2.870019e+000 56 48 37
3.053462e-001 -4.719694e-003 3.080712e+000 102 90 74
2.943415e-002 3.717099e-002 2.934964e+000 133 117 94
1.576881e-001 -2.296729e-001 2.733209e+000 46 42 33
1.940790e-001 -1.858749e-001 2.831066e+000 48 45 40
-3.679212e-002 -1.411276e-001 2.716864e+000 136 120 94
1.590660e-001 -1.054224e-001 2.877395e+000 45 43 38
1.901464e-004 -5.558373e-002 2.822531e+000 51 47 36
8.787020e-002 3.682957e-002 2.968581e+000 42 40 35
-8.100849e-002 1.085167e-001 2.938250e+000 46 42 34
-3.946142e-002 1.418569e-001 3.005621e+000 128 112 89
-6.481084e-002 1.621523e-001 3.023813e+000 47 44 36
-1.101497e-001 1.960138e-001 3.022894e+000 128 117 96
-3.558496e-001 4.193090e-001 3.160326e+000 128 113 89
4.705254e-001 -2.242150e-001 2.974599e+000 60 50 40
2.031013e-001 -2.041375e-001 2.821176e+000 51 49 44
1.650948e-001 -1.949238e-001 2.790429e+000 48 46 43
8.148702e-002 -1.307274e-001 2.801681e+000 136 124 101
8.685369e-002 -1.001974e-001 2.833223e+000 52 43 37
-6.036051e-003 -2.926368e-002 2.843491e+000 50 44 35
-6.036051e-003 -2.926368e-002 2.843491e+000 50 44 35
-1.065284e-001 -2.332093e-002 2.782185e+000 54 48 38
9.363706e-002 -1.233693e-002 2.923301e+000 58 51 41
2.620551e-002 -1.423756e-003 2.891958e+000 46 45 41
-3.961393e-002 6.345223e-002 2.916717e+000 130 118 95
-1.936803e-002 9.399876e-002 2.967910e+000 50 42 35
-5.297853e-002 1.086148e-001 2.958936e+000 50 50 42
-5.297853e-002 1.086148e-001 2.958936e+000 50 50 42
2.494540e-001 -4.811404e-001 3.513043e+000 175 185 194
-1.247334e-002 -2.272855e-001 2.663774e+000 122 110 94
-1.247334e-002 -2.272855e-001 2.663774e+000 122 110 94
8.874764e-002 -1.936553e-001 2.750894e+000 54 53 41
8.682117e-002 -1.954186e-001 2.752486e+000 54 53 41
1.059814e-001 -1.753649e-001 2.779126e+000 52 39 32
9.888314e-002 -1.449436e-001 2.802841e+000 46 41 35
4.680844e-002 -1.439023e-001 2.767083e+000 131 114 97
4.680844e-002 -1.439023e-001 2.767083e+000 131 114 97
-1.577460e-003 -3.859543e-002 2.833067e+000 42 41 34
3.578689e-001 -1.467095e-002 3.095162e+000 70 59 42
-4.987834e-002 3.378425e-002 2.874461e+000 49 43 38
-7.207951e-002 7.484099e-002 2.903771e+000 52 45 33
-7.321407e-002 7.307303e-002 2.906698e+000 52 45 33
-6.260996e-002 1.364825e-001 2.980930e+000 132 116 100
-6.260996e-002 1.364825e-001 2.980930e+000 132 116 100
-9.263622e-002 1.400696e-001 2.967267e+000 50 42 30
-7.622561e-002 1.493564e-001 2.991457e+000 51 48 35
-7.622561e-002 1.493564e-001 2.991457e+000 51 48 35
-5.547072e-002 1.561761e-001 3.014924e+000 49 42 32
-1.706270e-001 2.435474e-001 3.038425e+000 50 43 34
2.705409e-001 -5.263712e-001 3.497446e+000 179 189 199
3.809852e-001 -1.537154e-001 2.979556e+000 129 116 99
4.346404e-001 -1.482556e-001 3.026716e+000 133 120 103
-1.378626e-002 -1.541199e-001 2.717448e+000 45 37 22
-4.910175e-002 -1.574386e-001 2.696601e+000 52 45 31
6.008858e-002 -1.167043e-001 2.779020e+000 51 45 38
7.107191e-002 -1.190209e-001 2.806966e+000 48 46 36
4.780183e-002 -1.120133e-001 2.796574e+000 122 112 97
5.425707e-002 -1.098299e-001 2.804174e+000 50 43 33
3.819974e-002 -1.103121e-001 2.792310e+000 47 42 33
4.937164e-002 -9.205555e-002 2.804956e+000 50 38 28
6.173916e-002 -7.856375e-002 2.837060e+000 49 40 33
6.480050e-002 -7.740544e-002 2.832628e+000 49 40 33
-7.425987e-002 -7.870918e-002 2.748176e+000 124 114 97
3.774001e-001 -5.469767e-002 3.078961e+000 136 124 109
3.774001e-001 -5.469767e-002 3.078961e+000 136 124 109
-9.005696e-002 -6.307804e-002 2.751970e+000 42 34 21
1.772469e-002 -5.173172e-002 2.825794e+000 52 47 44
1.011510e-002 -4.319518e-002 2.837037e+000 120 108 89
8.189793e-003 -3.646434e-002 2.838332e+000 122 109 94
5.416804e-003 -3.886382e-002 2.843302e+000 122 109 94
-9.861691e-002 -4.362457e-002 2.766541e+000 46 44 32
2.417594e-002 -3.673674e-002 2.855345e+000 139 133 116
2.417594e-002 -3.673674e-002 2.855345e+000 139 133 116
-5.160870e-003 -1.038193e-002 2.869311e+000 52 46 37
-1.690161e-002 -4.048379e-003 2.865998e+000 127 113 94
-1.033368e-001 3.056409e-003 2.810063e+000 128 116 100
-1.033368e-001 3.056409e-003 2.810063e+000 128 116 100
-2.381909e-002 1.529496e-002 2.875368e+000 130 119 99
5.998362e-004 2.488233e-002 2.899579e+000 121 110 99
5.998362e-004 2.488233e-002 2.899579e+000 121 110 99
-2.906772e-002 6.512480e-002 2.928877e+000 50 39 26
-6.335554e-002 8.103032e-002 2.923234e+000 51 43 32
-5.451050e-002 9.244355e-002 2.939278e+000 45 42 34
-4.234340e-002 1.085998e-001 2.967243e+000 50 46 36
-1.140747e-001 2.294430e-001 3.064534e+000 47 38 31
-1.575905e-001 2.439748e-001 3.047017e+000 48 42 33
-1.310679e-001 2.611263e-001 3.095334e+000 52 46 32
-2.465198e-001 3.620418e-001 3.143300e+000 51 40 33
-2.187170e-002 -2.401992e-001 2.656410e+000 46 34 21
-5.321557e-003 -1.822537e-001 2.700310e+000 51 43 29
-5.321557e-003 -1.822537e-001 2.700310e+000 51 43 29
-7.305458e-003 -1.696685e-001 2.711554e+000 48 37 22
7.638797e-002 -1.028577e-001 2.824935e+000 121 115 101
4.016945e-001 -7.738111e-002 3.062130e+000 135 120 102
4.016945e-001 -7.738111e-002 3.062130e+000 135 120 102
2.661927e-002 -8.933434e-002 2.802154e+000 136 124 107
-5.713295e-002 -6.123873e-002 2.775655e+000 42 30 15
-5.713295e-002 -6.123873e-002 2.775655e+000 42 30 15
-1.066497e-001 -4.141416e-002 2.762725e+000 115 103 84
-7.585329e-002 -2.132482e-002 2.801088e+000 62 49 33
-7.544828e-002 -2.039137e-002 2.799585e+000 62 49 33
-8.705006e-002 -2.259958e-003 2.812048e+000 40 25 6
-1.096576e-001 1.024336e-002 2.815573e+000 37 28 14
-1.096576e-001 1.024336e-002 2.815573e+000 37 28 14
2.702481e-001 5.355830e-002 3.105877e+000 71 58 42
-4.909827e-002 1.186059e-001 2.968897e+000 128 118 105
6.662007e-002 1.315510e-001 3.061479e+000 63 51 37
6.662007e-002 1.315510e-001 3.061479e+000 63 51 37
8.521194e-002 1.357924e-001 3.089499e+000 56 44 31
-1.009856e-001 2.004103e-001 3.035255e+000 133 121 103
-1.452923e-001 2.199384e-001 3.035963e+000 34 28 20
-1.163427e-001 2.425008e-001 3.078492e+000 46 40 32
-1.455110e-001 2.661476e-001 3.087409e+000 55 47 29
-1.455110e-001 2.661476e-001 3.087409e+000 55 47 29
-1.596812e-001 2.644484e-001 3.077055e+000 52 40 29
-7.876811e-002 3.826478e-001 3.290448e+000 53 44 36
-8.731332e-002 5.060807e-001 3.459268e+000 132 124 109
-6.721837e-002 5.062276e-001 3.491791e+000 48 39 24
-5.436557e-002 1.031209e-001 2.953236e+000 55 52 47
1.042888e-001 -1.183628e-001 2.832430e+000 138 122 106
1.830588e-001 -2.318254e-001 2.774691e+000 54 54 49
2.703869e-001 4.564687e-002 3.118315e+000 95 85 74
2.703869e-001 4.564687e-002 3.118315e+000 95 85 74
4.204547e-001 -1.359496e-001 3.031022e+000 134 125 110
-3.257083e-001 3.768230e-001 3.109287e+000 59 56 46
-3.742523e-003 -6.058450e-004 2.873982e+000 58 54 51
-3.742523e-003 -6.058450e-004 2.873982e+000 58 54 51
2.496967e-002 -5.163999e-002 2.836611e+000 60 63 57
-5.537396e-002 1.066872e-001 2.961548e+000 54 54 48
-3.363558e-002 7.199886e-002 2.932829e+000 55 56 51
9.191697e-002 -1.690991e-001 2.770707e+000 139 125 109
8.377330e-002 -3.692723e-002 2.897200e+000 54 53 53
6.585034e-002 2.860438e-002 2.952455e+000 108 99 90
-7.839252e-002 -8.793610e-002 2.740448e+000 57 55 51
-1.832314e-001 2.232757e-001 3.035601e+000 141 131 114
-4.500384e-002 4.993145e-002 2.900372e+000 57 56 52
-5.653385e-002 1.386930e-001 2.996745e+000 53 53 48
-1.135328e-001 2.420067e-001 3.086847e+000 55 55 49
-3.862949e-002 1.218845e-001 2.993691e+000 62 62 54
3.159534e-002 1.234739e-002 2.908164e+000 144 132 116
-7.458847e-002 -8.043844e-002 2.749989e+000 128 118 105
-3.842742e-001 4.792239e-001 3.192064e+000 133 124 105
-4.670439e-003 -5.495851e-002 2.817187e+000 57 53 48
-4.670439e-003 -5.495851e-002 2.817187e+000 57 53 48
1.332430e-002 -6.827676e-002 2.815266e+000 53 52 47
3.326762e-002 -9.537582e-002 2.797505e+000 62 53 44
-1.619446e-002 1.648170e-002 2.885326e+000 56 53 47
-1.552061e-002 1.696945e-002 2.884391e+000 56 53 47
1.808658e-002 -4.056582e-002 2.845248e+000 52 51 49
2.887676e-002 -4.206070e-002 2.849292e+000 136 129 116
-3.397019e-002 8.088707e-002 2.948128e+000 142 131 117
3.565121e-002 -3.827548e-002 2.858723e+000 56 51 48
-4.316776e-002 1.073663e-001 2.968298e+000 59 54 49
-4.422282e-002 1.170811e-001 2.976177e+000 136 130 111
1.195309e-002 4.247863e-002 2.929164e+000 59 56 47
-4.950786e-002 5.053066e-001 3.489137e+000 69 65 54
3.473730e-001 -1.104781e-001 3.008433e+000 74 67 54
-1.004681e-001 2.886189e-002 2.832230e+000 66 60 47
-1.778851e-001 2.502154e-001 3.046476e+000 55 53 49
1.895121e-002 -8.300661e-002 2.805191e+000 63 54 47
1.895121e-002 -8.300661e-002 2.805191e+000 63 54 47
-5.405923e-002 6.331890e-002 2.910486e+000 63 55 47
3.261886e-002 -9.548319e-002 2.798450e+000 61 52 43
-9.283445e-002 1.571033e-001 2.996797e+000 137 130 113
-9.283445e-002 1.571033e-001 2.996797e+000 137 130 113
-3.971507e-002 8.297383e-002 2.936460e+000 62 55 45
7.460831e-002 -1.413763e-001 2.784047e+000 128 122 109
-9.900980e-002 2.038756e-001 3.043973e+000 143 131 114
-1.229009e-001 2.506470e-001 3.084200e+000 125 122 107
-1.229009e-001 2.506470e-001 3.084200e+000 125 122 107
-1.179471e-002 6.761503e-002 2.943777e+000 134 123 103
-4.968537e-002 1.297683e-001 2.996849e+000 133 124 113
1.039963e-001 -1.626893e-001 2.783920e+000 136 130 118
-1.515377e-001 3.549569e-001 3.220263e+000 144 133 111
2.697343e-001 1.478842e-002 3.106144e+000 144 135 118
-8.401777e-002 -4.297465e-002 2.778640e+000 57 53 46
-6.668843e-002 -8.211332e-002 2.753703e+000 118 114 103
-3.125576e-001 3.678759e-001 3.107322e+000 59 49 37
-8.379846e-002 9.651885e-002 2.936062e+000 123 117 107
-8.379846e-002 9.651885e-002 2.936062e+000 123 117 107
-1.436572e-001 2.264732e-001 3.043986e+000 123 119 107
-1.436572e-001 2.264732e-001 3.043986e+000 123 119 107
4.246478e-002 -8.733502e-002 2.815263e+000 134 126 113
-1.369053e-001 2.447680e-001 3.066873e+000 53 48 43
-2.529989e-002 5.926824e-002 2.923089e+000 131 124 108
8.492187e-002 -5.483644e-002 2.877747e+000 128 123 107
1.377540e-001 -1.154996e-001 2.852244e+000 58 56 47
1.377540e-001 -1.154996e-001 2.852244e+000 58 56 47
1.498452e-001 -1.147621e-001 2.858624e+000 60 56 47
1.809439e-001 -1.788980e-001 2.821761e+000 58 55 46
-4.906812e-002 3.664491e-001 3.295689e+000 57 47 38
-4.906812e-002 3.664491e-001 3.295689e+000 57 47 38
-1.689696e-002 5.080304e-001 3.516246e+000 73 63 51
-1.689696e-002 5.080304e-001 3.516246e+000 73 63 51
1.989948e-001 -2.281434e-001 2.793904e+000 43 44 38
1.989948e-001 -2.281434e-001 2.793904e+000 43 44 38
5.044888e-002 6.609670e-001 3.378126e+000 130 124 113
9.751162e-002 -2.125566e-001 2.741355e+000 48 47 42
1.413567e-001 -1.871622e-001 2.791437e+000 135 120 100
7.512990e-002 7.304279e-002 2.986732e+000 48 46 43
-1.380082e-001 2.129761e-001 3.018016e+000 46 41 35
-6.090351e-002 1.367668e-001 2.980032e+000 125 114 97
-6.090351e-002 1.367668e-001 2.980032e+000 125 114 97
-3.310390e-001 4.098658e-001 3.164102e+000 125 115 95
-3.310390e-001 4.098658e-001 3.164102e+000 125 115 95
2.385722e-002 -6.761786e-002 2.819423e+000 125 114 101
2.385722e-002 -6.761786e-002 2.819423e+000 125 114 101
4.887422e-002 -1.112371e-001 2.796227e+000 124 117 99
-5.649032e-002 1.021412e-001 2.943691e+000 118 107 92
-5.649032e-002 1.021412e-001 2.943691e+000 118 107 92
-6.521697e-002 1.189417e-001 2.955938e+000 129 122 106
3.819723e-002 -6.183932e-002 2.836697e+000 125 117 104
-4.833627e-002 1.196725e-001 2.968031e+000 122 112 96
8.090059e-002 1.206036e-001 3.068428e+000 45 37 24
8.090059e-002 1.206036e-001 3.068428e+000 45 37 24
3.752023e-001 -1.579516e-001 2.983214e+000 135 126 109
-7.560260e-002 -2.107238e-002 2.800527e+000 60 48 34
-6.242356e-002 1.031462e-001 2.936747e+000 115 102 87
-6.242356e-002 1.031462e-001 2.936747e+000 115 102 87
1.801118e-001 -1.810402e-001 2.824466e+000 48 45 35
1.801118e-001 -1.810402e-001 2.824466e+000 48 45 35
7.540489e-003 1.683754e-001 3.084993e+000 55 42 33
-5.475054e-002 3.547937e-001 3.296704e+000 62 49 35
-7.893815e-002 3.243385e-001 3.387586e+000 55 43 27
-7.893815e-002 3.243385e-001 3.387586e+000 55 43 27
-9.484426e-002 2.654330e-001 3.463341e+000 60 49 40
-5.771376e-003 3.744443e-001 3.362739e+000 53 41 29
-5.771376e-003 3.744443e-001 3.362739e+000 53 41 29
-8.023259e-002 4.853716e-001 3.513886e+000 122 114 101
-8.023259e-002 4.853716e-001 3.513886e+000 122 114 101
2.003614e-001 7.401791e-001 3.360272e+000 51 42 27
-3.391957e-001 4.426195e-001 3.188811e+000 131 118 99
-7.988975e-002 4.057246e-001 3.313424e+000 49 39 28
3.580406e+001 -1.226715e+001 -4.476249e+001 0 255 0
3.583347e+001 -1.227710e+001 -4.480168e+001 255 255 0
7.927301e+000 -4.830199e+000 -6.924938e+000 255 0 0
7.956698e+000 -4.846546e+000 -6.961933e+000 255 255 0
-5.163062e+002 5.249023e+002 7.743839e+002 0 255 0
-5.162820e+002 5.248777e+002 7.743477e+002 255 255 0
-4.015409e+002 -2.274974e+002 5.355498e+002 255 0 0
-4.015124e+002 -2.274813e+002 5.355120e+002 255 255 0
-1.500326e+002 2.345431e+002 2.273846e+002 0 255 0
-1.500117e+002 2.345103e+002 2.273533e+002 255 255 0
-1.087820e+000 -8.638037e-001 3.798302e+000 255 0 0
-1.056179e+000 -8.310102e-001 3.777723e+000 255 255 0
-1.008523e+001 -1.486094e+001 1.438163e+001 0 255 0
-1.006106e+001 -1.482572e+001 1.435565e+001 255 255 0
-7.434267e-001 -7.051583e-001 4.265365e+000 255 0 0
-7.186291e-001 -6.780731e-001 4.231431e+000 255 255 0
-1.321070e+000 -3.931494e-001 5.022031e+000 0 255 0
-1.294814e+000 -3.733854e-001 4.984349e+000 255 255 0
