ply
format ascii 1.0
element face 0
property list uchar int vertex_indices
element vertex 290
property float x
property float y
property float z
property uchar diffuse_red
property uchar diffuse_green
property uchar diffuse_blue
end_header
1.967682e+000 -1.194260e+000 -6.957108e+000 203 182 70
2.258669e+000 -9.158548e-001 -6.396021e+000 221 195 83
2.258669e+000 -9.158548e-001 -6.396021e+000 221 195 83
2.275621e+000 -9.033097e-001 -6.348994e+000 177 153 51
2.284525e+000 -7.990711e-001 -6.383186e+000 214 189 76
2.284231e+000 -7.132985e-001 -6.328484e+000 215 190 73
2.269844e+000 -8.391228e-001 -6.381025e+000 215 191 85
2.601022e+000 -4.951675e-001 -5.533271e+000 226 182 185
2.243986e+000 -1.021218e+000 -6.456681e+000 212 189 70
1.974601e+000 -1.155300e+000 -6.971506e+000 41 28 0
1.974601e+000 -1.155300e+000 -6.971506e+000 41 28 0
2.606532e+000 -3.734580e-001 -5.513996e+000 234 192 195
2.600309e+000 -4.271828e-001 -5.535088e+000 239 180 181
2.169314e+000 -6.465317e-001 -6.498011e+000 218 186 68
-1.006252e+000 5.603015e-001 -4.634305e+000 21 27 43
-1.006252e+000 5.603015e-001 -4.634305e+000 21 27 43
-1.006252e+000 5.603015e-001 -4.634305e+000 21 27 43
-9.684297e-001 -2.281800e-001 -5.118751e+000 23 24 28
8.586741e-001 7.728550e-002 -5.710902e+000 210 178 197
6.894639e-003 3.878782e-001 -5.564555e+000 152 22 32
-1.052441e+000 6.777206e-001 -4.655323e+000 192 205 242
1.045965e+000 8.483949e-003 -5.575700e+000 180 117 131
1.346612e+000 2.321007e-001 -5.641798e+000 188 119 130
1.001520e+000 6.149674e-001 -5.568414e+000 213 193 208
1.001520e+000 6.149674e-001 -5.568414e+000 213 193 208
3.321764e-001 5.336787e-001 -5.463092e+000 72 2 3
-9.905632e-001 4.278141e-001 -4.698404e+000 187 201 240
8.155885e-001 6.070214e-001 -5.557894e+000 95 0 2
4.338592e-001 1.067639e+000 -5.626269e+000 163 18 29
2.410637e+000 -1.187200e+000 -6.045269e+000 202 197 106
1.010740e+000 6.063240e-002 -5.722819e+000 72 5 8
-4.780735e-002 4.866119e-001 -5.585798e+000 225 56 94
-4.780735e-002 4.866119e-001 -5.585798e+000 225 56 94
-6.758841e-001 4.814533e-001 -4.694464e+000 108 54 70
1.147243e-001 7.014371e-001 -5.464020e+000 217 202 221
-1.062651e+000 5.534482e-001 -4.640112e+000 18 20 30
3.728859e-001 1.161038e+000 -5.628301e+000 171 150 172
2.601022e+000 -4.951675e-001 -5.533271e+000 226 182 185
9.024806e-001 -5.904467e-002 -5.683445e+000 51 9 18
8.209181e-001 1.518116e-001 -5.822750e+000 139 29 46
-5.861174e-001 3.426625e-001 -4.619705e+000 157 99 113
1.044391e+000 7.067192e-001 -5.574542e+000 44 9 7
7.311537e-002 6.253790e-001 -5.459804e+000 82 11 26
-6.906971e-001 5.271859e-001 -4.675068e+000 235 181 195
-1.101616e+000 5.055235e-001 -4.661998e+000 183 230 255
-1.049887e+000 6.365833e-001 -4.636214e+000 179 225 255
-1.052520e+000 6.977425e-001 -4.638003e+000 243 231 243
-9.569977e-001 8.091706e-001 -4.598847e+000 225 165 177
9.530312e-001 -4.943633e-003 -5.679581e+000 66 13 22
1.255846e+000 1.114364e-001 -5.601383e+000 95 35 39
1.127782e+000 1.191487e-001 -5.661140e+000 172 101 113
6.368488e-001 2.258153e-001 -5.730982e+000 115 4 13
9.100370e-001 6.536028e-001 -5.585082e+000 104 11 16
-1.499784e-001 6.620838e-001 -5.487260e+000 108 9 22
-1.017514e+000 5.271912e-001 -4.656739e+000 255 254 254
5.229961e-001 1.027899e+000 -5.635962e+000 153 14 28
-1.062542e+000 8.207444e-001 -4.620242e+000 227 167 179
-1.176771e+000 8.189258e-001 -4.634075e+000 133 74 96
4.092682e-001 1.211633e+000 -5.635161e+000 166 22 33
1.608968e+000 1.352781e+000 -5.364671e+000 69 31 28
1.608968e+000 1.352781e+000 -5.364671e+000 69 31 28
1.856791e+000 -3.552307e+000 -1.287713e+001 97 90 106
-1.297530e+000 -2.856112e+000 -1.295292e+001 72 44 55
2.272862e+000 -8.850320e-001 -6.411365e+000 214 191 78
-9.678382e-001 -1.619793e-001 -5.079921e+000 251 253 255
9.144498e-001 -2.095992e-002 -5.735517e+000 173 134 153
2.206759e+000 6.461573e-001 -6.447001e+000 110 64 25
-9.987608e-001 4.574385e-001 -4.660296e+000 165 217 254
-1.128393e+000 4.762597e-001 -4.666220e+000 168 156 197
-7.387542e-001 6.685549e-001 -4.621187e+000 170 104 126
-1.008230e+000 7.910623e-001 -4.612773e+000 178 107 123
-1.054172e+000 7.867605e-001 -4.607211e+000 174 107 127
-1.054172e+000 7.867605e-001 -4.607211e+000 174 107 127
1.742025e+000 1.486559e+000 -5.541211e+000 69 30 30
9.836893e-001 1.704297e+000 -5.796121e+000 140 24 34
2.644973e+000 -3.043194e+000 -1.050171e+001 103 99 121
2.402879e+000 -3.171979e+000 -1.135464e+001 108 101 117
2.527678e+000 -2.693126e+000 -1.092347e+001 64 53 67
2.463357e+000 -2.501083e+000 -1.135579e+001 74 53 61
2.400774e+000 -2.493495e+000 -1.136262e+001 124 120 134
2.400774e+000 -2.493495e+000 -1.136262e+001 124 120 134
2.582093e+000 -6.056610e-001 -5.596718e+000 240 184 195
2.598068e+000 -5.679169e-001 -5.531570e+000 242 193 212
2.232594e+000 -7.081027e-001 -6.451979e+000 164 169 117
2.612280e+000 -4.813152e-001 -5.518837e+000 234 173 188
2.288490e+000 -6.143691e-001 -6.349039e+000 177 147 41
9.638540e-001 3.261484e-002 -5.695705e+000 171 124 141
-6.152726e-001 -1.204719e-002 -4.784940e+000 226 178 187
-6.048451e-001 3.359897e-002 -4.737231e+000 219 171 182
-5.641247e-001 1.156348e-001 -4.702218e+000 157 101 112
-5.641247e-001 1.156348e-001 -4.702218e+000 157 101 112
-1.034436e+000 1.113649e-001 -4.677405e+000 215 151 168
-5.714860e-001 2.841609e-001 -4.651278e+000 157 99 112
-1.022883e+000 2.709995e-001 -4.708627e+000 245 182 191
6.010124e-002 6.555257e-001 -5.441766e+000 233 218 230
9.029977e-002 6.748496e-001 -5.437892e+000 229 219 231
-1.000671e+000 6.958495e-001 -4.626986e+000 241 217 230
3.475671e-001 1.013045e+000 -5.616574e+000 203 132 150
-1.093738e+000 8.026590e-001 -4.611660e+000 232 172 179
4.063778e-001 1.130072e+000 -5.622595e+000 152 22 54
2.847562e+000 -3.438292e+000 -1.000219e+001 111 103 121
2.535628e+000 -3.775049e+000 -1.093479e+001 100 95 114
2.633307e+000 -3.612291e+000 -1.068945e+001 115 112 130
2.658830e+000 -3.266248e+000 -1.060079e+001 117 106 126
2.548438e+000 -2.812941e+000 -1.094967e+001 73 58 66
2.200678e+000 -2.297477e+000 -1.168496e+001 107 92 111
2.015090e+000 -2.488199e+000 -1.245249e+001 97 86 99
2.182293e+000 -2.100558e+000 -1.195446e+001 107 91 101
2.596972e+000 -7.083732e-001 -5.508852e+000 247 142 75
2.269844e+000 -8.391228e-001 -6.381025e+000 215 191 85
2.607337e+000 -5.232044e-001 -5.515060e+000 249 179 194
2.612828e+000 -3.242805e-001 -5.424241e+000 215 78 123
9.051733e-001 4.751898e-002 -5.709619e+000 223 194 208
2.482312e-002 6.399436e-001 -5.437740e+000 239 225 235
-1.697756e-001 6.294384e-001 -5.433657e+000 209 176 193
1.599880e+000 1.130837e+000 -5.305169e+000 159 96 109
5.370892e-001 1.063565e+000 -5.634256e+000 212 136 155
9.785319e-001 -2.807379e-001 -5.541166e+000 215 148 157
-8.467502e-002 5.699584e-001 -5.528898e+000 243 238 244
-3.414760e-001 6.387959e-001 -5.264805e+000 34 19 22
2.035534e+000 8.830521e-001 -6.371107e+000 192 132 142
-1.369769e-001 3.406569e-001 -5.617705e+000 235 234 242
-4.771819e-002 1.600613e+000 -5.967687e+000 161 15 26
-1.376171e+000 -3.051148e+000 -1.301116e+001 58 58 69
-1.161793e-001 2.219462e-001 -5.781150e+000 198 32 51
1.439810e+000 3.589620e-001 -5.782304e+000 67 9 9
-3.096375e+000 3.353163e+000 -1.211312e+001 23 21 26
3.541500e-001 -3.625835e+000 -1.371520e+001 9 9 9
7.595358e-001 1.005652e-001 -5.776497e+000 238 230 239
-2.087755e-001 2.639323e-001 -5.682853e+000 230 212 229
2.410637e+000 -1.187200e+000 -6.045269e+000 202 197 106
1.183667e+000 1.437309e-001 -5.637102e+000 189 123 137
2.379383e-001 5.587193e-001 -5.469999e+000 230 208 219
-1.074307e-001 8.268590e-001 -5.547944e+000 91 1 7
1.588387e+000 1.512245e+000 -5.491687e+000 169 119 130
8.771909e-001 -5.199382e+000 -1.518503e+001 42 42 51
2.480996e+000 -3.792983e+000 -1.107901e+001 37 33 48
2.480996e+000 -3.792983e+000 -1.107901e+001 37 33 48
3.109314e+000 -3.040879e+000 -9.308679e+000 60 49 63
2.784625e+000 -2.869994e+000 -1.018377e+001 64 55 67
2.516971e+000 -2.137411e+000 -8.436759e+000 188 174 148
5.017892e-001 -3.409825e+000 -1.350872e+001 104 81 65
2.614335e+000 -3.649380e-001 -5.481112e+000 224 181 194
2.614335e+000 -3.649380e-001 -5.481112e+000 224 181 194
2.303873e+000 -3.146400e-001 -6.317468e+000 220 184 47
5.845325e-001 1.807272e+000 -5.954593e+000 67 1 0
2.779406e+000 -3.332389e+000 -1.020583e+001 53 42 52
2.779406e+000 -3.332389e+000 -1.020583e+001 53 42 52
2.401326e+000 -2.028885e+000 -8.725061e+000 178 171 140
1.609769e+000 -2.705192e+000 -1.280670e+001 110 84 65
1.472191e+000 -2.655230e+000 -1.283142e+001 18 29 45
2.171756e+000 -2.260270e+000 -1.191440e+001 54 41 43
2.575205e+000 -6.087337e-001 -5.523972e+000 225 190 208
2.138149e+000 3.734645e-001 -6.510128e+000 147 111 50
4.676901e-001 9.207429e-001 -5.577185e+000 148 19 29
1.742025e+000 1.486559e+000 -5.541211e+000 69 30 30
2.425011e+000 -4.073843e+000 -1.123001e+001 84 79 97
2.651301e+000 -3.468512e+000 -1.072556e+001 98 89 106
2.972510e+000 -2.989837e+000 -9.614915e+000 56 43 54
1.838735e+000 -3.872671e+000 -1.290180e+001 10 10 12
1.838735e+000 -3.872671e+000 -1.290180e+001 10 10 12
2.827417e+000 -2.990667e+000 -1.009818e+001 59 47 61
2.827417e+000 -2.990667e+000 -1.009818e+001 59 47 61
2.629944e+000 -3.114384e+000 -1.070839e+001 59 52 64
2.629944e+000 -3.114384e+000 -1.070839e+001 59 52 64
1.746347e+000 -2.904821e+000 -1.305439e+001 47 38 45
2.084666e+000 -2.430787e+000 -1.209900e+001 52 42 42
1.967682e+000 -1.194260e+000 -6.957108e+000 203 182 70
2.583682e+000 -6.122927e-001 -5.539226e+000 227 196 213
2.610726e+000 -4.239289e-001 -5.478461e+000 236 188 201
2.616293e+000 -3.604137e-001 -5.451804e+000 245 191 207
2.206973e+000 -2.708156e-001 -6.291585e+000 114 69 10
-6.384959e-001 -6.864852e-002 -4.828139e+000 229 178 190
-5.362373e-001 2.139272e-001 -4.688778e+000 225 164 172
4.582644e-001 2.572014e-001 -5.736328e+000 125 4 14
2.177204e+000 3.170845e-001 -6.529295e+000 84 49 7
-4.721063e-001 4.613687e-001 -4.690366e+000 207 155 168
2.243653e+000 6.707165e-001 -6.401463e+000 176 139 90
3.388313e-001 6.061436e-001 -5.515114e+000 156 27 44
-7.109292e-001 6.156080e-001 -4.637363e+000 189 126 143
-7.109292e-001 6.156080e-001 -4.637363e+000 189 126 143
2.578492e-001 7.434577e-001 -5.384980e+000 219 197 209
4.140725e-001 7.617294e-001 -5.445374e+000 246 224 228
4.140725e-001 7.617294e-001 -5.445374e+000 246 224 228
-7.387542e-001 6.685549e-001 -4.621187e+000 170 104 126
5.019068e-001 8.859152e-001 -5.614802e+000 205 172 197
-8.290692e-001 7.333283e-001 -4.602674e+000 233 178 193
-8.719233e-001 7.689469e-001 -4.606414e+000 226 172 182
-1.153205e+000 7.902112e-001 -4.624835e+000 229 167 180
1.230841e+000 1.182428e+000 -5.257943e+000 184 132 143
2.926800e+000 -3.269954e+000 -9.819989e+000 52 45 57
2.609257e+000 -3.572484e+000 -1.080266e+001 101 97 119
2.548931e+000 -3.568279e+000 -1.093055e+001 105 97 118
2.288309e+000 -3.737623e+000 -1.162287e+001 53 51 65
2.271575e+000 -3.671597e+000 -1.164162e+001 85 78 96
2.210577e+000 -3.609485e+000 -1.178659e+001 39 35 49
2.910447e+000 -2.885873e+000 -9.887886e+000 57 41 47
2.910447e+000 -2.885873e+000 -9.887886e+000 57 41 47
2.517994e+000 -3.018387e+000 -1.106110e+001 57 46 54
1.730675e+000 -3.623214e+000 -1.329875e+001 88 85 103
2.546089e+000 -2.235965e+000 -8.361210e+000 187 178 144
2.673446e+000 -2.720443e+000 -1.047673e+001 67 55 65
1.796626e+000 -3.226086e+000 -1.308721e+001 54 48 60
2.400765e+000 -2.107744e+000 -8.674297e+000 113 98 80
2.219750e+000 -2.507679e+000 -1.182702e+001 63 47 57
2.441835e+000 -2.355294e+000 -1.115551e+001 121 118 134
2.221611e+000 -8.916716e-001 -6.462013e+000 216 192 86
2.589899e+000 -6.403715e-001 -5.618333e+000 221 70 104
2.586886e+000 -5.523327e-001 -5.579307e+000 239 180 193
2.124686e+000 -5.595144e-001 -6.636471e+000 228 191 78
2.321382e+000 -4.699791e-001 -6.251788e+000 229 196 57
2.321382e+000 -4.699791e-001 -6.251788e+000 229 196 57
8.290746e-001 -3.625609e-001 -5.557133e+000 169 46 60
2.268050e+000 -3.508890e-001 -6.301448e+000 97 62 2
2.621212e+000 -2.997073e-001 -5.430712e+000 232 191 210
2.240717e+000 -3.099660e-001 -6.304174e+000 120 75 14
2.622079e+000 -2.422016e-001 -5.467765e+000 240 192 195
2.211232e+000 3.321695e-001 -6.515894e+000 176 139 48
-4.500016e-001 4.811067e-001 -4.731405e+000 171 123 144
-4.361196e-001 5.108461e-001 -4.755945e+000 220 191 199
-1.148297e+000 5.226328e-001 -4.670215e+000 173 160 195
1.032795e-001 6.530750e-001 -5.444293e+000 73 21 45
3.451308e-001 7.005252e-001 -5.457436e+000 243 214 219
1.141982e-001 7.518656e-001 -5.485294e+000 71 6 13
-7.100377e-001 6.625500e-001 -4.644013e+000 237 174 184
-1.011957e+000 7.620574e-001 -4.599257e+000 228 165 173
-1.071601e+000 8.528707e-001 -4.626813e+000 157 100 122
-3.948931e+000 4.101837e+000 -1.168820e+001 146 93 86
2.296408e+000 -4.111971e+000 -1.157121e+001 51 45 59
2.338047e+000 -4.053292e+000 -1.145117e+001 89 87 105
1.034353e+000 -5.315378e+000 -1.505926e+001 48 48 57
2.331068e+000 -3.938712e+000 -1.142607e+001 88 85 102
2.793737e+000 -3.494039e+000 -1.023739e+001 59 54 71
3.091196e+000 -3.132754e+000 -9.317959e+000 56 47 62
2.497697e+000 -3.652928e+000 -1.114849e+001 99 95 118
2.430960e+000 -3.680737e+000 -1.133802e+001 56 46 58
2.932044e+000 -3.108736e+000 -9.765556e+000 117 110 126
2.471461e+000 -3.440160e+000 -1.106942e+001 53 46 61
2.633278e+000 -3.302336e+000 -1.069060e+001 68 59 74
2.257375e+000 -3.578385e+000 -1.175473e+001 88 81 97
1.711989e+000 -4.036760e+000 -1.330246e+001 36 26 32
2.615949e+000 -3.217419e+000 -1.072978e+001 100 93 109
2.074134e+000 -3.664425e+000 -1.229186e+001 52 47 68
2.074134e+000 -3.664425e+000 -1.229186e+001 52 47 68
2.775543e+000 -2.947717e+000 -1.022556e+001 47 34 47
2.199909e+000 -3.436625e+000 -1.198594e+001 90 78 86
1.933134e+000 -3.634621e+000 -1.272502e+001 44 36 49
2.558902e+000 -3.035830e+000 -1.082218e+001 57 46 60
2.079158e+000 -3.304060e+000 -1.225686e+001 57 49 60
2.077091e+000 -3.217169e+000 -1.221035e+001 89 85 99
2.077091e+000 -3.217169e+000 -1.221035e+001 89 85 99
2.616996e+000 -2.665353e+000 -1.070159e+001 106 99 115
2.616996e+000 -2.665353e+000 -1.070159e+001 106 99 115
2.527678e+000 -2.693126e+000 -1.092347e+001 64 53 67
2.527678e+000 -2.693126e+000 -1.092347e+001 64 53 67
1.341562e+000 -3.178196e+000 -1.442979e+001 74 67 78
2.260588e+000 -2.316628e+000 -1.170175e+001 68 55 68
2.411979e+000 -1.184458e+000 -6.047569e+000 197 196 106
2.452579e+000 -2.133928e+000 -1.117162e+001 71 60 79
2.303763e+000 -2.115767e+000 -1.142699e+001 91 79 87
2.303763e+000 -2.115767e+000 -1.142699e+001 91 79 87
2.131116e+000 -2.130783e+000 -1.198800e+001 62 50 55
2.593864e+000 -5.090711e-001 -5.560520e+000 233 187 193
2.335875e+000 -2.406891e-001 -6.221901e+000 175 144 33
2.628181e+000 -1.992335e-001 -5.455005e+000 237 192 205
2.253294e+000 5.908100e-001 -6.358376e+000 139 84 16
-8.848582e-001 5.014410e-001 -4.646906e+000 182 160 191
-1.098187e+000 5.493099e-001 -4.638264e+000 147 198 228
-9.606355e-001 6.848851e-001 -4.627390e+000 235 199 217
5.039970e-001 9.349898e-001 -5.589082e+000 202 159 176
-8.528629e-001 7.904169e-001 -4.606047e+000 146 87 107
3.475671e-001 1.013045e+000 -5.616574e+000 203 132 150
-9.652833e-001 8.717926e-001 -4.625677e+000 216 161 173
4.969809e-001 1.165391e+000 -5.662965e+000 142 34 59
-3.958135e+000 3.647200e+000 -1.167512e+001 144 80 72
-5.347478e+000 3.671932e+000 -1.143361e+001 128 72 58
-5.347478e+000 3.671932e+000 -1.143361e+001 128 72 58
-5.500591e+000 3.659609e+000 -1.137873e+001 125 72 64
-5.500591e+000 3.659609e+000 -1.137873e+001 125 72 64
-3.870789e+000 3.798581e+000 -1.174825e+001 129 57 41
-3.954900e+000 3.811569e+000 -1.178844e+001 130 57 30
-5.046677e+000 3.754194e+000 -1.140785e+001 130 72 56
-3.835943e+000 3.877247e+000 -1.172130e+001 132 53 30
-4.917842e+000 3.865853e+000 -1.145769e+001 134 72 65
-4.875592e+000 3.954191e+000 -1.143168e+001 135 75 58
-3.542797e+000 4.102868e+000 -1.174822e+001 143 85 86
-6.664607e-002 1.579849e-002 -2.506229e-002 0 255 0
-6.635870e-002 1.584507e-002 -7.506144e-002 255 255 0
-7.288523e-001 7.279704e-001 3.363703e-001 255 0 0
-7.256189e-001 7.255691e-001 2.865328e-001 255 255 0
