ply
format ascii 1.0
element face 0
property list uchar int vertex_indices
element vertex 530
property float x
property float y
property float z
property uchar diffuse_red
property uchar diffuse_green
property uchar diffuse_blue
end_header
1.925268e+000 -1.156725e+000 -6.895896e+000 203 182 70
2.205425e+000 -8.913742e-001 -6.339316e+000 221 195 83
2.205425e+000 -8.913742e-001 -6.339316e+000 221 195 83
2.226710e+000 -8.822568e-001 -6.303293e+000 177 153 51
2.222872e+000 -7.771644e-001 -6.309149e+000 214 189 76
2.237716e+000 -7.033219e-001 -6.291879e+000 215 190 73
2.213768e+000 -8.183141e-001 -6.321001e+000 215 191 85
2.548296e+000 -4.948685e-001 -5.491954e+000 226 182 185
2.185041e+000 -9.863920e-001 -6.377637e+000 212 189 70
1.922488e+000 -1.113588e+000 -6.887255e+000 41 28 0
1.922488e+000 -1.113588e+000 -6.887255e+000 41 28 0
2.556832e+000 -3.786847e-001 -5.480146e+000 234 192 195
2.548593e+000 -4.289416e-001 -5.496650e+000 239 180 181
2.129745e+000 -6.478666e-001 -6.479529e+000 218 186 68
-8.733437e-001 4.945121e-001 -4.663773e+000 21 27 43
-8.717999e-001 4.949502e-001 -4.663498e+000 21 27 43
-8.733437e-001 4.945121e-001 -4.663773e+000 21 27 43
-8.379020e-001 -2.560404e-001 -5.145883e+000 23 24 28
8.942976e-001 3.882222e-002 -5.768789e+000 210 178 197
7.948025e-002 3.340033e-001 -5.626019e+000 152 22 32
-9.178124e-001 6.071431e-001 -4.686864e+000 192 205 242
1.072214e+000 -2.950195e-002 -5.617890e+000 180 117 131
1.354104e+000 1.889646e-001 -5.668903e+000 188 119 130
1.028782e+000 5.515315e-001 -5.619465e+000 213 193 208
1.028782e+000 5.515315e-001 -5.619465e+000 213 193 208
3.906207e-001 4.728261e-001 -5.501794e+000 72 2 3
-8.562957e-001 3.676051e-001 -4.718802e+000 187 201 240
8.533192e-001 5.440707e-001 -5.622205e+000 95 0 2
4.844000e-001 9.792792e-001 -5.665146e+000 163 18 29
2.358522e+000 -1.148861e+000 -5.983402e+000 202 197 106
1.023297e+000 3.061245e-002 -5.695455e+000 72 5 8
2.893905e-002 4.273157e-001 -5.608561e+000 225 56 94
2.893905e-002 4.273157e-001 -5.608561e+000 225 56 94
-5.600621e-001 4.207028e-001 -4.738677e+000 108 54 70
1.842960e-001 6.310710e-001 -5.517274e+000 217 202 221
-9.229338e-001 4.905083e-001 -4.644005e+000 18 20 30
4.274123e-001 1.069008e+000 -5.670223e+000 171 150 172
2.549172e+000 -4.934654e-001 -5.493216e+000 226 182 185
9.308181e-001 -8.902226e-002 -5.704429e+000 51 9 18
8.464623e-001 1.131706e-001 -5.813069e+000 139 29 46
-4.740913e-001 2.884981e-001 -4.685863e+000 157 99 113
1.075320e+000 6.423691e-001 -5.638601e+000 44 9 7
1.447058e-001 5.583451e-001 -5.502811e+000 82 11 26
-5.753718e-001 4.638749e-001 -4.729263e+000 235 181 195
-9.623642e-001 4.431452e-001 -4.689584e+000 183 230 255
-8.945044e-001 5.621333e-001 -4.556441e+000 179 225 255
-9.186260e-001 6.244388e-001 -4.667456e+000 243 231 243
-8.239425e-001 7.298942e-001 -4.618403e+000 225 165 177
9.824569e-001 -3.921967e-002 -5.721834e+000 66 13 22
1.265233e+000 7.566855e-002 -5.616307e+000 95 35 39
1.141737e+000 8.271608e-002 -5.670780e+000 172 101 113
6.786689e-001 1.796000e-001 -5.763811e+000 115 4 13
9.334110e-001 5.874406e-001 -5.608308e+000 104 11 16
-6.743320e-002 5.912178e-001 -5.513610e+000 108 9 22
-8.840808e-001 4.617544e-001 -4.678233e+000 255 254 254
5.712835e-001 9.391202e-001 -5.673082e+000 153 14 28
-9.260827e-001 7.401606e-001 -4.634373e+000 227 167 179
-1.035467e+000 7.391350e-001 -4.646913e+000 133 74 96
4.592828e-001 1.115507e+000 -5.663185e+000 166 22 33
1.610230e+000 1.263251e+000 -5.397870e+000 69 31 28
1.610230e+000 1.263251e+000 -5.397870e+000 69 31 28
1.795651e+000 -3.429051e+000 -1.278781e+001 97 90 106
-1.225328e+000 -2.838174e+000 -1.305023e+001 72 44 55
2.213081e+000 -8.594344e-001 -6.337790e+000 214 191 78
-8.399094e-001 -1.941812e-001 -5.124142e+000 251 253 255
9.422101e-001 -5.093095e-002 -5.761282e+000 173 134 153
2.149824e+000 5.849461e-001 -6.404015e+000 110 64 25
-8.638563e-001 3.959929e-001 -4.680123e+000 165 217 254
-9.904735e-001 4.154035e-001 -4.696553e+000 168 156 197
-6.200502e-001 5.973489e-001 -4.655078e+000 170 104 126
-8.747487e-001 7.117976e-001 -4.625357e+000 178 107 123
-9.182093e-001 7.083063e-001 -4.623610e+000 174 107 127
-9.189562e-001 7.087264e-001 -4.627630e+000 174 107 127
1.728958e+000 1.388519e+000 -5.546591e+000 69 30 30
1.005328e+000 1.591365e+000 -5.824827e+000 140 24 34
2.571809e+000 -2.942411e+000 -1.044807e+001 103 99 121
2.319665e+000 -3.050738e+000 -1.124010e+001 108 101 117
2.436527e+000 -2.591744e+000 -1.081245e+001 64 53 67
2.351293e+000 -2.387660e+000 -1.116107e+001 74 53 61
2.303025e+000 -2.393867e+000 -1.121941e+001 124 120 134
2.303025e+000 -2.393867e+000 -1.121941e+001 124 120 134
2.527897e+000 -5.975201e-001 -5.549668e+000 240 184 195
2.545322e+000 -5.624461e-001 -5.487233e+000 242 193 212
2.182526e+000 -6.974809e-001 -6.408033e+000 164 169 117
2.553810e+000 -4.788950e-001 -5.465198e+000 234 173 188
2.230479e+000 -6.064578e-001 -6.290843e+000 177 147 41
9.893407e-001 -2.986201e-004 -5.722120e+000 171 124 141
-5.013210e-001 -4.868492e-002 -4.834827e+000 226 178 187
-4.925637e-001 -4.752029e-003 -4.800701e+000 219 171 182
-4.520516e-001 7.360979e-002 -4.749018e+000 157 101 112
-4.520516e-001 7.360979e-002 -4.749018e+000 157 101 112
-8.992382e-001 6.703416e-002 -4.713734e+000 215 151 168
-4.592302e-001 2.333666e-001 -4.699240e+000 157 99 112
-8.900000e-001 2.185769e-001 -4.748385e+000 245 182 191
1.318528e-001 5.867105e-001 -5.481147e+000 233 218 230
1.603402e-001 6.061205e-001 -5.481257e+000 229 219 231
-8.700707e-001 6.235612e-001 -4.662562e+000 241 217 230
4.012406e-001 9.264333e-001 -5.650697e+000 203 132 150
-9.561977e-001 7.236684e-001 -4.627835e+000 232 172 179
4.592871e-001 1.039429e+000 -5.662890e+000 152 22 54
2.779112e+000 -3.330474e+000 -9.945095e+000 111 103 121
2.467356e+000 -3.644855e+000 -1.085194e+001 100 95 114
2.563729e+000 -3.488995e+000 -1.061221e+001 115 112 130
2.581757e+000 -3.152657e+000 -1.052317e+001 117 106 126
2.468098e+000 -2.720394e+000 -1.088274e+001 73 58 66
2.128404e+000 -2.232775e+000 -1.164266e+001 107 92 111
1.932561e+000 -2.398555e+000 -1.232266e+001 97 86 99
2.088954e+000 -2.025075e+000 -1.181465e+001 107 91 101
2.553182e+000 -6.981584e-001 -5.477829e+000 247 142 75
2.217367e+000 -8.194459e-001 -6.328375e+000 215 191 85
2.554732e+000 -5.200107e-001 -5.472167e+000 249 179 194
2.572374e+000 -3.333456e-001 -5.408887e+000 215 78 123
9.315017e-001 1.333265e-002 -5.724587e+000 223 194 208
9.898152e-002 5.717566e-001 -5.480266e+000 239 225 235
-8.583536e-002 5.613494e-001 -5.480599e+000 209 176 193
1.592128e+000 1.045831e+000 -5.308799e+000 159 96 109
5.820274e-001 9.767597e-001 -5.673995e+000 212 136 155
1.005479e+000 -2.976679e-001 -5.563286e+000 215 148 157
-5.421944e-003 5.043430e-001 -5.568451e+000 243 238 244
-2.473477e-001 5.694469e-001 -5.303164e+000 34 19 22
2.001601e+000 8.103739e-001 -6.375313e+000 192 132 142
-5.477471e-002 2.860924e-001 -5.657096e+000 235 234 242
2.123694e-002 1.483523e+000 -5.988277e+000 161 15 26
-1.285862e+000 -2.974922e+000 -1.294121e+001 58 58 69
-3.587488e-002 1.729521e-001 -5.819096e+000 198 32 51
1.439946e+000 3.103999e-001 -5.802823e+000 67 9 9
-3.041335e+000 3.226952e+000 -1.238675e+001 23 21 26
3.580077e-001 -3.499747e+000 -1.358903e+001 9 9 9
7.953108e-001 6.180937e-002 -5.809020e+000 238 230 239
-1.231470e-001 2.127294e-001 -5.720857e+000 230 212 229
2.360134e+000 -1.150022e+000 -5.987328e+000 202 197 106
1.198405e+000 1.052876e-001 -5.662435e+000 189 123 137
3.013757e-001 4.952675e-001 -5.511452e+000 230 208 219
-2.835617e-002 7.473803e-001 -5.573883e+000 91 1 7
1.583932e+000 1.411584e+000 -5.504634e+000 169 119 130
8.506758e-001 -5.010986e+000 -1.502877e+001 42 42 51
2.424683e+000 -3.675254e+000 -1.103480e+001 37 33 48
2.424683e+000 -3.675254e+000 -1.103480e+001 37 33 48
3.030796e+000 -2.941639e+000 -9.239570e+000 60 49 63
2.696219e+000 -2.765650e+000 -1.009147e+001 64 55 67
2.447883e+000 -2.060068e+000 -8.358112e+000 188 174 148
4.986266e-001 -3.291057e+000 -1.338403e+001 104 81 65
2.563489e+000 -3.701623e-001 -5.445356e+000 224 181 194
2.563489e+000 -3.701623e-001 -5.445356e+000 224 181 194
2.255491e+000 -3.255072e-001 -6.293454e+000 220 184 47
6.204203e-001 1.682318e+000 -5.965300e+000 67 1 0
2.707375e+000 -3.223546e+000 -1.014337e+001 53 42 52
2.700644e+000 -3.214704e+000 -1.011808e+001 53 42 52
2.333434e+000 -1.956907e+000 -8.648788e+000 178 171 140
1.549856e+000 -2.611040e+000 -1.269045e+001 110 84 65
1.419200e+000 -2.564416e+000 -1.271727e+001 18 29 45
2.087518e+000 -2.184392e+000 -1.181187e+001 54 41 43
2.529542e+000 -6.024898e-001 -5.490475e+000 225 190 208
2.097296e+000 3.256321e-001 -6.506673e+000 147 111 50
5.170606e-001 8.399933e-001 -5.613976e+000 148 19 29
1.730516e+000 1.388149e+000 -5.550833e+000 69 30 30
2.360581e+000 -3.932241e+000 -1.113622e+001 84 79 97
2.569212e+000 -3.337684e+000 -1.061441e+001 98 89 106
2.888904e+000 -2.885954e+000 -9.533452e+000 56 43 54
1.775576e+000 -3.726599e+000 -1.277231e+001 10 10 12
1.785555e+000 -3.748059e+000 -1.284073e+001 10 10 12
2.740843e+000 -2.882863e+000 -1.000773e+001 59 47 61
2.740843e+000 -2.882863e+000 -1.000773e+001 59 47 61
2.545131e+000 -2.999631e+000 -1.060945e+001 59 52 64
2.545131e+000 -2.999631e+000 -1.060945e+001 59 52 64
1.678205e+000 -2.800761e+000 -1.293117e+001 47 38 45
2.004233e+000 -2.346832e+000 -1.199149e+001 52 42 42
1.931120e+000 -1.160632e+000 -6.914811e+000 203 182 70
2.532371e+000 -6.048546e-001 -5.496236e+000 227 196 213
2.559919e+000 -4.261482e-001 -5.441030e+000 236 188 201
2.565924e+000 -3.658284e-001 -5.416208e+000 245 191 207
2.163463e+000 -2.843459e-001 -6.272027e+000 114 69 10
-5.228726e-001 -1.024778e-001 -4.870546e+000 229 178 190
-4.256075e-001 1.670054e-001 -4.733457e+000 225 164 172
5.094457e-001 2.091383e-001 -5.774217e+000 125 4 14
2.134266e+000 2.722282e-001 -6.523824e+000 84 49 7
-3.657538e-001 4.022513e-001 -4.733412e+000 207 155 168
2.199943e+000 6.093989e-001 -6.399000e+000 176 139 90
3.965077e-001 5.406074e-001 -5.555220e+000 156 27 44
-5.926282e-001 5.478402e-001 -4.672014e+000 189 126 143
-5.926282e-001 5.478402e-001 -4.672014e+000 189 126 143
3.201321e-001 6.710864e-001 -5.425420e+000 219 197 209
4.678331e-001 6.889684e-001 -5.484559e+000 246 224 228
4.678331e-001 6.889684e-001 -5.484559e+000 246 224 228
-6.190921e-001 5.979948e-001 -4.653835e+000 170 104 126
5.494115e-001 8.069495e-001 -5.651741e+000 205 172 197
-7.048291e-001 6.590955e-001 -4.630665e+000 233 178 193
-7.456238e-001 6.926704e-001 -4.631836e+000 226 172 182
-1.012570e+000 7.116939e-001 -4.638139e+000 229 167 180
1.244925e+000 1.094642e+000 -5.284687e+000 184 132 143
2.847033e+000 -3.155763e+000 -9.733700e+000 52 45 57
2.534219e+000 -3.445385e+000 -1.071102e+001 101 97 119
2.468949e+000 -3.434318e+000 -1.081781e+001 105 97 118
2.216822e+000 -3.599129e+000 -1.151264e+001 53 51 65
2.199548e+000 -3.534941e+000 -1.153052e+001 85 78 96
2.144705e+000 -3.484814e+000 -1.170531e+001 39 35 49
2.821760e+000 -2.782657e+000 -9.799835e+000 57 41 47
2.821760e+000 -2.782657e+000 -9.799835e+000 57 41 47
2.432241e+000 -2.906185e+000 -1.095717e+001 57 46 54
1.666516e+000 -3.486960e+000 -1.316481e+001 88 85 103
2.477855e+000 -2.154379e+000 -8.281037e+000 187 178 144
2.583419e+000 -2.620693e+000 -1.038029e+001 67 55 65
1.727753e+000 -3.106624e+000 -1.295865e+001 54 48 60
2.334179e+000 -2.031978e+000 -8.596749e+000 113 98 80
2.135387e+000 -2.418975e+000 -1.172031e+001 63 47 57
2.351688e+000 -2.272533e+000 -1.105737e+001 121 118 134
2.175337e+000 -8.719189e-001 -6.421637e+000 216 192 86
2.537281e+000 -6.316036e-001 -5.574445e+000 221 70 104
2.534923e+000 -5.480608e-001 -5.538245e+000 239 180 193
2.082081e+000 -5.589788e-001 -6.611174e+000 228 191 78
2.272446e+000 -4.722438e-001 -6.222296e+000 229 196 57
2.272446e+000 -4.722438e-001 -6.222296e+000 229 196 57
8.642629e-001 -3.761039e-001 -5.581490e+000 169 46 60
2.221388e+000 -3.599113e-001 -6.277479e+000 97 62 2
2.571293e+000 -3.081697e-001 -5.396926e+000 232 191 210
2.195409e+000 -3.213004e-001 -6.282347e+000 120 75 14
2.571698e+000 -2.536282e-001 -5.435621e+000 240 192 195
2.155631e+000 2.869231e-001 -6.475954e+000 176 139 48
-3.451988e-001 4.209471e-001 -4.774268e+000 171 123 144
-3.323593e-001 4.491573e-001 -4.798470e+000 220 191 199
-1.007822e+000 4.579398e-001 -4.691666e+000 173 160 195
1.733017e-001 5.843423e-001 -5.484610e+000 73 21 45
4.025752e-001 6.304757e-001 -5.497506e+000 243 214 219
1.828775e-001 6.781021e-001 -5.524345e+000 71 6 13
-5.920256e-001 5.923484e-001 -4.677607e+000 237 174 184
-8.783171e-001 6.856163e-001 -4.619487e+000 228 165 173
-9.353752e-001 7.713327e-001 -4.641581e+000 157 100 122
-3.933594e+000 4.014809e+000 -1.201152e+001 146 93 86
2.232541e+000 -3.965833e+000 -1.146958e+001 51 45 59
2.272897e+000 -3.909076e+000 -1.135031e+001 89 87 105
1.002608e+000 -5.124131e+000 -1.490729e+001 48 48 57
2.264174e+000 -3.796694e+000 -1.132304e+001 88 85 102
2.721595e+000 -3.378227e+000 -1.016635e+001 59 54 71
3.016243e+000 -3.032148e+000 -9.251782e+000 56 47 62
2.417484e+000 -3.513270e+000 -1.102709e+001 99 95 118
2.356273e+000 -3.545873e+000 -1.123352e+001 56 46 58
2.864313e+000 -3.016840e+000 -9.730720e+000 117 110 126
2.394095e+000 -3.313024e+000 -1.096597e+001 53 46 61
2.551816e+000 -3.181531e+000 -1.059262e+001 68 59 74
2.183368e+000 -3.444565e+000 -1.164201e+001 88 81 97
1.653071e+000 -3.885691e+000 -1.317072e+001 36 26 32
2.533108e+000 -3.099007e+000 -1.063055e+001 100 93 109
2.003738e+000 -3.526489e+000 -1.217128e+001 52 47 68
2.003738e+000 -3.526489e+000 -1.217128e+001 52 47 68
2.688158e+000 -2.840384e+000 -1.013235e+001 47 34 47
2.124080e+000 -3.307417e+000 -1.186974e+001 90 78 86
1.858302e+000 -3.493075e+000 -1.257814e+001 44 36 49
2.474356e+000 -2.923266e+000 -1.072104e+001 57 46 60
2.004834e+000 -3.180048e+000 -1.213770e+001 57 49 60
2.002474e+000 -3.096798e+000 -1.209238e+001 89 85 99
2.002474e+000 -3.096798e+000 -1.209238e+001 89 85 99
2.526330e+000 -2.567896e+000 -1.060367e+001 106 99 115
2.526330e+000 -2.567896e+000 -1.060367e+001 106 99 115
2.438985e+000 -2.594415e+000 -1.082305e+001 64 53 67
2.438985e+000 -2.594415e+000 -1.082305e+001 64 53 67
1.284017e+000 -3.064840e+000 -1.428523e+001 74 67 78
2.174170e+000 -2.237268e+000 -1.160025e+001 68 55 68
2.361391e+000 -1.147433e+000 -5.989710e+000 197 196 106
2.360043e+000 -2.062081e+000 -1.107669e+001 71 60 79
2.216318e+000 -2.045800e+000 -1.133131e+001 91 79 87
2.216318e+000 -2.045800e+000 -1.133131e+001 91 79 87
2.047572e+000 -2.061860e+000 -1.188737e+001 62 50 55
2.542072e+000 -5.070268e-001 -5.520764e+000 233 187 193
2.287097e+000 -2.550604e-001 -6.198964e+000 175 144 33
2.578074e+000 -2.127915e-001 -5.424053e+000 237 192 205
2.209445e+000 5.335373e-001 -6.355077e+000 139 84 16
-7.574065e-001 4.388402e-001 -4.678643e+000 182 160 191
-9.599875e-001 4.835191e-001 -4.661080e+000 147 198 228
-8.296942e-001 6.126041e-001 -4.651962e+000 235 199 217
5.513958e-001 8.536872e-001 -5.625529e+000 202 159 176
-7.276204e-001 7.130913e-001 -4.631512e+000 146 87 107
4.022126e-001 9.269967e-001 -5.651658e+000 203 132 150
-8.346398e-001 7.896700e-001 -4.644202e+000 216 161 173
5.422837e-001 1.071475e+000 -5.687858e+000 142 34 59
-3.927876e+000 3.548877e+000 -1.198378e+001 144 80 72
-5.357528e+000 3.599110e+000 -1.170684e+001 128 72 58
-5.357528e+000 3.599110e+000 -1.170684e+001 128 72 58
-5.509872e+000 3.585708e+000 -1.162917e+001 125 72 64
-5.509872e+000 3.585708e+000 -1.162917e+001 125 72 64
-3.844271e+000 3.701932e+000 -1.206586e+001 129 57 41
-3.932563e+000 3.718075e+000 -1.211423e+001 130 57 30
-5.049180e+000 3.678862e+000 -1.169076e+001 130 72 56
-3.810359e+000 3.781344e+000 -1.203767e+001 132 53 30
-4.921087e+000 3.791647e+000 -1.175085e+001 134 72 65
-4.878305e+000 3.880265e+000 -1.171985e+001 135 75 58
-3.516252e+000 4.004323e+000 -1.206228e+001 143 85 86
2.408840e+000 -1.683100e+000 -5.830770e+000 214 38 63
7.250479e-001 2.629650e-001 -5.675811e+000 204 29 53
7.250479e-001 2.629650e-001 -5.675811e+000 204 29 53
-7.266358e-001 -3.147884e-001 -5.157960e+000 235 183 196
-7.772038e-001 5.374278e-001 -4.663211e+000 162 189 226
2.152813e+000 1.102812e+000 -6.020577e+000 212 176 116
-3.203714e+000 3.782113e+000 -1.475385e+001 29 26 34
8.242591e-001 -2.813849e-002 -5.801868e+000 81 4 10
-3.033912e+000 4.107491e+000 -1.685911e+001 96 85 103
1.260928e+000 -2.561900e+000 -1.340480e+001 25 29 49
1.945430e+000 -1.047032e+000 -6.869076e+000 203 178 60
1.299471e+000 -8.583008e-002 -5.443483e+000 215 151 156
7.328064e-001 5.450691e-002 -5.860250e+000 199 45 81
3.025577e-001 1.116165e-001 -5.693331e+000 204 42 82
7.446990e-001 1.494778e-001 -5.782058e+000 111 13 20
-5.608347e-001 3.766267e-001 -4.700057e+000 211 160 172
5.155547e-001 8.854842e-001 -5.668505e+000 138 12 28
-8.939130e-001 7.418207e-001 -4.629065e+000 224 165 176
2.071013e+000 -2.311830e+000 -1.197128e+001 104 96 105
8.651045e-001 -8.149876e-003 -5.774126e+000 223 197 213
2.204638e+000 5.416815e-001 -6.333587e+000 149 93 24
1.100271e+000 5.905736e-001 -5.565334e+000 102 6 13
-7.693886e-001 9.088359e-001 -4.698122e+000 158 124 143
2.971267e+000 -3.188947e+000 -9.407745e+000 122 117 137
2.750436e+000 -3.316890e+000 -1.007540e+001 117 111 132
2.319265e+000 -3.050528e+000 -1.123922e+001 108 101 117
2.660492e+000 -2.608819e+000 -1.024741e+001 120 114 129
2.588605e+000 -2.626660e+000 -1.040332e+001 67 55 65
2.281501e+000 -1.476277e+000 -6.077809e+000 201 153 45
2.281501e+000 -1.476277e+000 -6.077809e+000 201 153 45
2.357688e+000 -2.390202e+000 -1.117499e+001 74 53 61
2.180309e+000 -8.330700e-001 -6.402463e+000 217 194 83
2.221047e+000 -7.306443e-001 -6.330578e+000 163 137 40
2.261597e+000 -5.000814e-001 -6.212610e+000 225 194 63
-8.200056e-001 3.620242e-001 -4.712255e+000 245 237 249
1.079785e+000 4.937761e-001 -5.584247e+000 201 41 74
2.964612e+000 -3.298781e+000 -9.597138e+000 116 113 136
2.520303e+000 -3.493126e+000 -1.065054e+001 51 47 63
2.946326e+000 -3.027253e+000 -9.490943e+000 115 100 121
2.808988e+000 -3.118584e+000 -9.850370e+000 32 30 45
2.666726e+000 -3.198252e+000 -1.035307e+001 115 109 126
2.386238e+000 -3.313502e+000 -1.110854e+001 113 109 127
2.620524e+000 -2.680318e+000 -1.031109e+001 67 61 76
2.434316e+000 -2.836111e+000 -1.091995e+001 116 108 123
2.467055e+000 -2.579649e+000 -1.072160e+001 104 104 123
2.552887e+000 -2.473992e+000 -1.045554e+001 111 103 121
2.089460e+000 -2.025058e+000 -1.181300e+001 107 91 101
2.529484e+000 -5.782288e-001 -5.504191e+000 208 106 133
2.529484e+000 -5.782288e-001 -5.504191e+000 208 106 133
2.521187e+000 -5.152886e-001 -5.530133e+000 206 60 87
2.553237e+000 -4.531126e-001 -5.482250e+000 208 95 123
2.285329e+000 -4.575137e-001 -6.165979e+000 167 135 16
2.567023e+000 -2.299131e-001 -5.437420e+000 215 80 98
2.567023e+000 -2.299131e-001 -5.437420e+000 215 80 98
2.306742e+000 -3.588587e-002 -6.107999e+000 167 136 16
2.499311e+000 7.047760e-002 -5.578149e+000 184 158 92
-6.069200e-001 4.224553e-001 -4.729202e+000 220 158 170
2.220276e-001 6.464396e-001 -5.488841e+000 187 157 176
-6.981684e-001 8.868668e-001 -4.708968e+000 132 93 111
-2.476422e+000 3.169609e+000 -1.207877e+001 91 86 95
1.636571e+000 3.717053e-001 -6.045420e+000 205 41 51
-2.480505e+000 1.750966e+000 -1.247908e+001 124 105 114
1.908289e+000 -1.136595e+000 -6.854982e+000 226 207 90
-7.167630e-001 3.059905e-001 -4.815143e+000 223 153 168
-7.167630e-001 3.059905e-001 -4.815143e+000 223 153 168
1.366724e+000 1.065214e-001 -5.566048e+000 132 26 23
9.831761e-001 1.408770e-001 -5.816339e+000 135 14 22
-8.826096e-001 1.795139e-001 -4.725644e+000 223 160 168
1.438122e+000 1.299854e+000 -5.369882e+000 200 144 155
-1.932152e+000 2.049256e+000 -1.176292e+001 121 100 115
-4.477334e-001 -1.643473e-001 -5.075378e+000 251 208 218
1.172013e+000 4.552783e-002 -5.533595e+000 134 59 62
7.982533e-001 -2.260764e+000 -1.240790e+001 150 127 125
-7.509185e-001 2.856466e-001 -4.705848e+000 217 152 166
3.975513e-001 6.326809e-001 -5.512880e+000 249 236 236
2.160099e+000 -1.798391e+000 -9.084833e+000 197 186 164
1.941166e+000 -1.062430e+000 -6.860401e+000 234 210 88
2.235403e+000 -6.355252e-001 -6.245801e+000 243 216 80
2.268902e+000 -5.331758e-001 -6.165865e+000 190 158 35
2.270108e+000 -5.326672e-001 -6.166840e+000 190 158 35
-4.907081e-001 3.246739e-001 -4.682821e+000 186 125 131
-5.288033e-001 3.914684e-001 -4.691541e+000 149 91 108
-8.841726e-001 7.768916e-001 -4.648072e+000 184 119 134
2.357907e+000 -2.277334e+000 -1.107291e+001 153 149 170
2.154275e+000 -8.397617e-001 -6.441624e+000 184 192 135
2.159925e+000 -8.420712e-001 -6.454364e+000 184 192 135
2.247248e+000 -5.877460e-001 -6.261431e+000 246 219 83
1.194011e+000 -3.411957e-001 -5.455039e+000 163 93 103
1.280975e+000 -1.262534e-001 -5.429768e+000 156 83 91
-5.089640e-001 3.034965e-001 -4.690729e+000 247 197 208
2.651411e+000 -3.041995e+000 -1.030029e+001 140 131 150
2.566465e+000 -2.675963e+000 -1.046995e+001 128 115 128
2.411575e+000 -2.796913e+000 -1.095227e+001 80 68 82
2.179961e+000 -9.357107e-001 -6.396534e+000 200 170 46
2.179961e+000 -9.357107e-001 -6.396534e+000 200 170 46
2.226688e+000 -8.823518e-001 -6.303255e+000 200 173 44
2.185206e+000 -8.654630e-001 -6.362607e+000 196 170 45
2.185206e+000 -8.654630e-001 -6.362607e+000 196 170 45
1.985448e+000 -2.115768e+000 -1.204714e+001 74 49 49
2.277553e+000 -4.965283e-001 -6.172680e+000 206 173 42
-8.880411e-001 -4.073467e-001 -5.340708e+000 236 189 200
2.265133e+000 -3.746859e-001 -6.220921e+000 206 171 32
-9.308932e-001 -2.421851e-001 -5.142381e+000 157 204 237
-9.391135e-001 -1.953398e-001 -5.096142e+000 119 141 190
9.226130e-001 1.215046e-001 -5.793903e+000 150 41 66
-9.102287e-001 2.848756e-001 -4.727519e+000 228 166 183
-6.756791e-001 3.618874e-001 -4.701558e+000 202 130 146
3.542038e-001 6.216191e-001 -5.470059e+000 155 106 126
3.680819e-001 6.462692e-001 -5.480081e+000 247 224 229
-1.061934e+000 7.892468e-001 -4.690757e+000 249 196 203
1.676804e+000 1.412157e+000 -5.521382e+000 189 140 135
9.184301e-001 4.970327e-001 -5.566128e+000 213 195 202
9.184301e-001 4.970327e-001 -5.566128e+000 213 195 202
2.635612e+000 -3.261533e+000 -1.039165e+001 65 50 61
1.928415e+000 -3.770346e+000 -1.240695e+001 90 91 111
1.928415e+000 -3.770346e+000 -1.240695e+001 90 91 111
-4.815788e-001 2.348037e-001 -4.675750e+000 225 173 182
5.021746e-001 1.078546e+000 -5.680751e+000 140 30 54
1.667001e+000 2.932799e+000 -7.444158e+000 141 136 153
-5.622272e-001 3.686749e-001 -4.684333e+000 240 193 203
-9.596973e-002 6.701759e-001 -5.553126e+000 233 45 74
-2.882202e+000 1.078233e+000 -1.282393e+001 117 96 105
6.192980e-001 1.682292e+000 -5.961945e+000 96 5 3
2.555247e+000 -6.332257e-001 -5.468802e+000 255 64 99
2.555247e+000 -6.332257e-001 -5.468802e+000 255 64 99
1.360269e-001 5.549785e-001 -5.475280e+000 104 39 63
8.651029e-001 6.954024e-001 -5.663789e+000 234 44 79
4.309635e-001 8.652896e-001 -5.648811e+000 180 37 58
1.218589e+000 1.392604e+000 -5.760608e+000 75 43 27
2.681061e+000 -3.401559e+000 -1.027344e+001 128 117 139
1.144260e+000 -3.171609e-001 -5.435892e+000 244 181 190
2.011518e-001 5.369125e-001 -5.481463e+000 150 99 104
5.687176e-001 9.422177e-001 -5.668511e+000 194 28 51
1.548450e+000 1.265320e+000 -5.368084e+000 185 130 132
1.421152e-001 1.226378e+000 -5.737707e+000 117 3 7
5.827395e-001 1.385258e+000 -5.971935e+000 78 0 0
-3.383572e-001 1.769799e+000 -9.705349e+000 6 6 4
1.340157e+000 2.549597e+000 -8.119782e+000 19 14 17
1.686802e+000 -4.668323e+000 -1.322911e+001 92 88 103
2.545505e+000 -3.602625e+000 -1.062028e+001 126 118 137
2.124364e+000 -3.991255e+000 -1.185096e+001 117 113 130
1.804744e+000 -4.421897e+000 -1.294184e+001 60 44 54
2.075978e+000 -3.330414e+000 -1.195023e+001 74 62 78
2.156764e+000 -9.475224e-001 -6.433774e+000 242 216 84
2.167975e+000 -8.270313e-001 -6.380590e+000 240 220 94
4.727062e-001 8.569812e-001 -5.663780e+000 230 194 214
4.727062e-001 8.569812e-001 -5.663780e+000 230 194 214
-3.349373e-001 1.711299e+000 -9.733852e+000 72 59 60
-6.336276e-001 1.772338e+000 -1.030119e+001 14 12 15
1.646547e+000 2.444305e+000 -7.566603e+000 115 95 82
1.646547e+000 2.444305e+000 -7.566603e+000 115 95 82
2.671068e+000 -3.447117e+000 -1.034784e+001 124 118 149
2.746771e+000 -3.306692e+000 -1.004110e+001 146 138 160
1.837194e+000 -4.321694e+000 -1.275807e+001 106 103 119
2.839075e+000 -3.118148e+000 -9.803835e+000 124 114 122
2.339412e+000 -3.277519e+000 -1.118753e+001 117 110 129
1.868993e+000 -3.215020e+000 -1.253529e+001 110 102 119
-8.980523e-001 6.781080e-002 -4.711710e+000 236 173 188
-5.300950e-001 4.211857e-001 -4.720468e+000 196 138 152
4.613384e-001 9.146717e-001 -5.658748e+000 235 153 173
5.931029e-001 1.063929e+000 -5.689139e+000 162 28 49
4.530743e-001 1.064630e+000 -5.674114e+000 223 201 224
2.567290e+000 -2.869414e-001 -5.414559e+000 227 157 174
2.611805e+000 -1.575840e-002 -5.351829e+000 221 180 195
2.547656e+000 -3.680375e-001 -5.427438e+000 205 169 184
2.593820e+000 -3.406727e-001 -5.376698e+000 213 36 57
2.582004e+000 -2.026596e-001 -5.389645e+000 220 180 189
2.559857e+000 -5.986523e-002 -5.409215e+000 214 39 53
2.610891e+000 1.233809e-001 -5.279897e+000 220 188 205
2.610615e+000 1.235534e-001 -5.280274e+000 220 188 205
2.567812e+000 -5.520150e-001 -5.449952e+000 214 37 60
-3.078505e+000 -5.207848e-001 -1.505482e+001 103 100 125
-7.098747e-001 6.591939e-001 -4.624005e+000 220 167 180
-9.949914e-001 6.851435e-001 -4.622131e+000 158 96 117
2.853440e+000 -3.025626e+000 -9.813558e+000 87 79 92
2.246812e+000 -7.527452e-001 -6.266382e+000 161 135 39
2.256230e+000 -5.393914e-001 -6.227357e+000 213 182 65
2.576850e+000 -1.207820e-001 -5.396388e+000 228 185 199
-3.094819e+000 -5.513946e-001 -1.522549e+001 105 101 122
-2.284992e+000 4.285068e-001 -1.244011e+001 30 23 27
-2.284992e+000 4.285068e-001 -1.244011e+001 30 23 27
-7.580105e-001 4.374768e-001 -4.674870e+000 168 140 174
4.219295e-001 1.134862e+000 -5.674937e+000 204 168 181
4.219295e-001 1.134862e+000 -5.674937e+000 204 168 181
2.957305e+000 -3.173905e+000 -9.379272e+000 81 74 89
2.236852e+000 -7.992931e-001 -6.272948e+000 159 131 35
2.236852e+000 -7.992931e-001 -6.272948e+000 159 131 35
2.558844e+000 -4.255737e-001 -5.436345e+000 226 180 196
2.574240e+000 -3.687428e-001 -5.426301e+000 229 182 199
2.575735e+000 -6.457535e-003 -5.379509e+000 229 167 175
2.575735e+000 -6.457535e-003 -5.379509e+000 229 167 175
2.613430e+000 1.580038e-001 -5.260701e+000 208 43 65
2.628441e+000 2.555214e-001 -5.237617e+000 190 71 99
-2.006744e+000 5.360724e-001 -1.201214e+001 41 29 37
-1.910381e+000 5.944083e-001 -1.186003e+001 39 29 37
-1.092247e+000 6.233552e-001 -4.648612e+000 177 111 130
3.995567e-001 9.260729e-001 -5.647918e+000 183 112 129
5.765098e-001 1.008596e+000 -5.676175e+000 134 8 22
2.845223e+000 -2.944157e+000 -9.719614e+000 41 31 41
2.197811e+000 -9.296392e-001 -6.368620e+000 205 177 65
2.578162e+000 -3.079198e-001 -5.400526e+000 235 185 202
2.571033e+000 -2.121256e-001 -5.408372e+000 230 182 190
2.243494e+000 -3.839863e+000 -4.113718e+001 153 182 225
2.593979e+000 -5.410793e-002 -5.339249e+000 190 82 110
2.593979e+000 -5.410793e-002 -5.339249e+000 190 82 110
2.622205e+000 1.317923e-001 -5.248216e+000 232 168 187
2.625206e+000 1.767695e-001 -5.229969e+000 249 156 168
2.625206e+000 1.767695e-001 -5.229969e+000 249 156 168
1.021385e+000 1.614640e+000 -5.806442e+000 190 117 131
2.574939e+000 -2.877315e-001 -5.424490e+000 227 157 174
2.546389e+000 -2.175440e-001 -5.461227e+000 217 38 44
2.605592e+000 3.752170e-002 -5.313970e+000 231 165 180
2.605592e+000 3.752170e-002 -5.313970e+000 231 165 180
2.584745e+000 -2.009061e-001 -5.392332e+000 220 180 189
2.617846e+000 -2.323897e-002 -5.275809e+000 208 46 66
2.634285e+000 1.034449e-001 -5.242697e+000 212 43 79
2.270601e+000 -5.698910e-001 -6.195723e+000 154 125 24
2.275108e+000 -2.509367e-001 -6.168515e+000 164 134 26
-2.409052e+000 3.018918e+000 -1.147703e+001 80 73 84
2.469255e+000 -2.694188e-001 -5.696550e+000 175 143 24
2.469255e+000 -2.694188e-001 -5.696550e+000 175 143 24
2.590763e+000 -1.074805e-001 -5.359826e+000 195 79 113
2.590763e+000 -1.074805e-001 -5.359826e+000 195 79 113
2.585106e+000 1.254159e-002 -5.353454e+000 199 74 90
1.129471e+000 5.211156e-001 -5.625648e+000 174 69 91
2.686195e+000 3.670373e-001 -5.068600e+000 250 148 75
2.572592e+000 5.939309e-002 -5.369831e+000 255 60 100
2.529950e+000 1.679060e+000 -5.116452e+000 236 206 70
2.649177e+000 1.971551e-001 -5.192935e+000 255 64 106
2.627189e+000 1.187937e-001 -5.207316e+000 255 65 107
-7.571923e-001 1.053924e+000 -1.011531e+001 67 52 60
2.708753e+000 4.151929e-001 -5.021573e+000 228 109 50
2.633632e+000 2.655549e-001 -5.205829e+000 255 198 213
2.616995e+000 1.983139e-001 -5.249002e+000 248 69 109
6.269612e-002 -3.389451e-003 -1.133588e-001 0 255 0
6.252893e-002 -3.510120e-003 -1.633584e-001 255 255 0
-5.688802e-001 6.663343e-001 2.185369e-001 255 0 0
-5.661775e-001 6.639074e-001 1.686690e-001 255 255 0
-1.164472e+000 1.708008e-001 -4.514026e-001 0 255 0
-1.153132e+000 1.693110e-001 -5.000769e-001 255 255 0
-1.200660e+000 2.162814e+000 -2.558572e-001 255 0 0
-1.188125e+000 2.152777e+000 -3.032084e-001 255 255 0
-2.306853e+000 -4.010673e+000 -2.092749e+000 0 255 0
-2.288855e+000 -3.976308e+000 -2.124294e+000 255 255 0
