ply
format ascii 1.0
element face 0
property list uchar int vertex_indices
element vertex 895
property float x
property float y
property float z
property uchar diffuse_red
property uchar diffuse_green
property uchar diffuse_blue
end_header
-3.085654e-001 8.756839e-001 2.476266e+000 61 57 48
-3.085654e-001 8.756839e-001 2.476266e+000 61 57 48
-2.490246e-001 1.331192e+000 2.796808e+000 57 47 41
-3.246817e-001 6.108387e-001 2.279361e+000 133 121 104
-2.943408e-001 5.782406e-001 2.241651e+000 137 124 105
2.096181e-001 6.500640e-001 2.115890e+000 137 124 102
-1.524067e-001 6.923549e-001 2.279183e+000 63 58 47
-1.376344e-001 8.530994e-001 2.374096e+000 127 118 105
3.389770e-001 9.292636e-001 2.272004e+000 139 125 112
-3.186256e-001 1.035536e+000 2.598913e+000 43 43 35
-3.568577e-001 6.408419e-001 2.317088e+000 50 46 43
-2.584881e-001 1.199936e+000 2.698532e+000 129 114 91
-3.027468e-001 5.402164e-001 2.218273e+000 127 111 88
-1.931344e-001 7.676651e-001 2.342722e+000 46 47 39
-1.666135e-001 6.884584e-001 2.280919e+000 37 29 19
-2.964365e-001 5.402051e-001 2.217605e+000 127 111 88
-2.564043e-001 6.807573e-001 2.309195e+000 46 42 38
-2.698727e-001 6.294525e-001 2.273879e+000 47 42 36
-3.138520e-001 8.171170e-001 2.431979e+000 133 117 96
3.601762e-001 1.870987e+000 2.982731e+000 60 56 47
-3.518774e-001 6.942118e-001 2.356967e+000 128 116 93
-2.629049e-001 1.219548e+000 2.714343e+000 47 44 39
2.575777e-001 9.263981e-001 2.301402e+000 135 120 101
3.122850e-001 7.783890e-001 2.170520e+000 139 122 105
-4.668789e-001 8.253610e-001 2.500391e+000 137 125 104
2.393016e-001 9.515421e-001 2.326040e+000 54 43 33
-1.585469e-001 7.016810e-001 2.285970e+000 137 127 115
3.340413e-001 8.133596e-001 2.188282e+000 142 130 116
-5.233543e-001 4.650859e-001 2.251492e+000 126 113 97
-6.031593e-001 5.576130e-001 2.152445e+000 126 111 91
-4.702175e-001 7.463517e-001 2.645459e+000 62 52 40
7.104974e-001 -3.760299e-001 2.486149e+000 72 91 106
7.115317e-001 -3.764241e-001 2.488330e+000 72 91 106
-3.631298e-001 5.568964e-001 2.261046e+000 130 114 91
-2.693410e-001 7.381825e-001 2.357501e+000 128 111 90
5.356106e-002 1.546715e+000 2.845634e+000 130 115 94
2.464254e-001 8.860999e-001 2.271927e+000 134 118 95
7.791932e-001 -3.921055e-001 2.447207e+000 192 210 222
-5.191330e-001 6.349449e-001 2.376005e+000 45 42 35
-3.845066e-001 5.932119e-001 2.294584e+000 51 49 43
-3.546227e-001 4.545619e-001 2.178852e+000 48 46 40
7.447318e-001 -3.577294e-001 2.486873e+000 190 208 222
8.774143e-001 1.040003e-001 2.721313e+000 176 185 194
6.920153e-001 -4.067522e-001 2.477468e+000 181 199 213
7.432028e-001 -4.392893e-001 2.438369e+000 114 133 147
7.639959e-001 -4.252993e-001 2.436724e+000 191 209 223
8.897072e-001 1.992596e-002 2.691234e+000 178 188 200
9.145081e-001 1.106789e-001 2.711708e+000 183 192 202
9.168059e-001 8.312265e-002 2.671775e+000 191 201 211
9.643296e-001 1.148828e-001 2.698199e+000 188 196 207
1.009960e+000 -1.696138e-001 2.471042e+000 186 200 209
-5.468331e-001 5.715419e-001 2.338797e+000 133 119 102
-5.467135e-001 5.725531e-001 2.335351e+000 133 119 102
-4.986361e-001 7.703226e-001 2.465799e+000 46 43 36
-5.274668e-001 4.360990e-001 2.237437e+000 126 115 96
-3.583082e-001 5.960981e-001 2.284483e+000 119 114 97
9.771101e-002 1.587393e+000 2.860351e+000 132 120 106
6.788679e-001 -3.889564e-001 2.492206e+000 176 194 209
6.788679e-001 -3.889564e-001 2.492206e+000 176 194 209
7.490805e-001 -3.986946e-001 2.460824e+000 189 208 222
-3.036571e-001 5.716553e-001 2.248152e+000 124 113 90
-1.791731e-001 5.608611e-001 2.194123e+000 131 123 110
-1.620136e-001 6.060323e-001 2.218645e+000 42 35 27
-1.619059e-001 6.061266e-001 2.218810e+000 42 35 27
-9.107072e-002 9.717350e-001 2.465221e+000 46 45 39
2.803787e-001 5.792471e-001 2.027429e+000 136 123 107
3.105866e-001 7.977474e-001 2.179726e+000 138 125 108
3.369726e-001 8.866806e-001 2.234146e+000 66 53 37
6.374172e-001 -4.598221e-001 2.463388e+000 183 203 217
7.437459e-001 -4.237794e-001 2.446995e+000 184 206 220
9.089718e-001 4.026432e-002 2.676678e+000 180 190 202
-4.893875e-001 8.230010e-001 2.500698e+000 133 122 104
-4.710021e-001 8.157034e-001 2.502594e+000 43 33 21
-1.748429e-001 7.787014e-001 2.350357e+000 139 132 120
-1.968560e-001 5.610117e-001 2.200250e+000 131 123 111
-1.883422e-001 5.653736e-001 2.189164e+000 137 129 117
-1.738562e-001 5.224758e-001 2.162200e+000 128 120 106
6.310678e-001 -4.879901e-001 2.437554e+000 181 200 214
9.223618e-001 -1.728774e-001 2.526718e+000 176 192 205
3.450547e-001 8.163442e-001 2.191706e+000 49 35 22
9.100272e-001 7.646149e-002 2.701586e+000 66 78 90
9.398022e-001 -1.205296e-001 2.526076e+000 67 85 97
9.398022e-001 -1.205296e-001 2.526076e+000 67 85 97
9.744113e-001 1.439368e-001 2.693535e+000 189 201 213
9.744113e-001 1.439368e-001 2.693535e+000 189 201 213
5.412418e-001 -4.952038e-001 2.480586e+000 188 206 220
7.483062e-001 -2.563336e-001 2.548582e+000 124 143 155
6.954325e-001 -4.492150e-001 2.450108e+000 184 202 216
6.959046e-001 -4.494979e-001 2.452024e+000 184 202 216
4.343900e-001 -4.138279e-001 2.572585e+000 172 190 202
-2.610284e-001 9.940378e-001 2.542332e+000 131 114 95
4.343900e-001 -4.138279e-001 2.572585e+000 172 190 202
9.461162e-001 6.329214e-002 2.677816e+000 182 192 202
-4.717713e-001 8.373950e-001 2.506092e+000 47 37 29
9.168059e-001 8.312265e-002 2.671775e+000 191 201 211
5.433574e-001 -3.580302e-001 2.560975e+000 183 201 215
5.433574e-001 -3.580302e-001 2.560975e+000 183 201 215
4.772294e-001 -3.924902e-001 2.561882e+000 179 196 212
8.920861e-001 -1.760983e-001 2.548490e+000 173 189 202
7.250203e-001 -3.500874e-001 2.499511e+000 192 210 224
4.750464e-001 -4.046499e-001 2.558049e+000 177 196 211
1.250225e-001 1.565599e+000 2.836149e+000 53 43 34
9.407150e-001 1.287175e-001 2.712109e+000 54 65 77
8.998667e-001 1.149479e-001 2.736049e+000 164 174 184
7.220525e-001 -3.890221e-001 2.469675e+000 172 190 205
-5.301775e-001 7.587118e-001 2.458838e+000 46 37 23
3.260494e-001 8.023528e-001 2.173135e+000 137 125 109
3.098057e-001 7.976322e-001 2.179298e+000 138 125 108
9.040395e-001 -2.118258e-001 2.521448e+000 173 187 198
8.814881e-001 5.650963e-002 2.709842e+000 176 190 202
3.068175e-001 6.418250e-001 2.063462e+000 45 37 19
-1.731151e-001 5.933985e-001 2.218142e+000 38 29 20
-1.808754e-001 5.513409e-001 2.188701e+000 51 44 36
-3.175384e-001 5.428633e-001 2.220903e+000 124 110 89
-4.953486e-001 6.954426e-001 2.403330e+000 49 45 36
-3.254359e-001 5.924984e-001 2.272351e+000 46 43 38
-2.757332e-001 1.276488e+000 2.756528e+000 128 117 107
-2.757332e-001 1.276488e+000 2.756528e+000 128 117 107
9.188282e-001 1.284738e-001 2.727155e+000 116 126 137
4.494141e-001 -3.949824e-001 2.571719e+000 78 97 112
8.945048e-001 -1.890139e-001 2.532821e+000 85 99 110
6.463254e-001 -3.833076e-001 2.505705e+000 110 132 146
-8.133442e-001 -4.549092e-001 2.977711e+000 99 87 71
1.672257e-001 -3.009682e-001 2.729818e+000 117 135 148
-1.648884e-001 4.793419e-001 2.125451e+000 47 44 39
-1.648884e-001 4.793419e-001 2.125451e+000 47 44 39
2.846800e-001 5.744194e-001 2.001755e+000 87 78 63
6.474390e-001 -4.684368e-001 2.452898e+000 163 182 197
6.474390e-001 -4.684368e-001 2.452898e+000 163 182 197
7.115317e-001 -3.764241e-001 2.488330e+000 72 91 106
2.798922e-001 -3.796184e-001 2.653159e+000 183 202 216
2.904142e-003 -2.881912e-001 2.795695e+000 164 180 193
-8.077395e-001 -6.248834e-001 2.818819e+000 114 108 92
2.640455e-001 -3.503407e-001 2.666111e+000 140 162 175
2.640455e-001 -3.503407e-001 2.666111e+000 140 162 175
-3.617417e-002 -2.915509e-001 2.806337e+000 161 176 189
-3.372490e-001 7.328117e-001 2.377371e+000 125 109 93
2.460863e-001 -3.512273e-001 2.673766e+000 182 201 215
2.269807e-001 -3.450258e-001 2.682858e+000 126 144 158
3.622252e-002 -3.286621e-001 2.770631e+000 162 180 192
1.243572e-001 -2.600882e-001 2.771043e+000 167 181 191
8.797124e-001 -1.690927e-001 2.554581e+000 173 189 201
-6.513435e-001 7.946738e-001 3.738177e+000 100 93 75
6.969439e-001 -3.881855e-001 2.480933e+000 112 134 148
3.219030e-001 -3.851597e-001 2.636121e+000 176 195 210
6.484895e-001 -3.548160e-001 2.522115e+000 107 128 142
8.718880e-002 -2.939840e-001 2.762500e+000 161 177 190
1.774467e-001 -2.683334e-001 2.758161e+000 162 178 188
6.790545e-002 -2.524528e-001 2.796284e+000 70 82 90
-2.925949e-001 5.761410e-001 2.247430e+000 137 124 105
-3.083019e-001 6.631745e-001 2.314514e+000 115 108 88
6.352100e-001 -4.589917e-001 2.459679e+000 183 203 217
7.253636e-001 -3.952638e-001 2.472950e+000 180 198 212
4.527858e-001 -3.906315e-001 2.577789e+000 104 123 138
4.888647e-001 -3.833151e-001 2.569853e+000 177 196 210
2.867731e-001 -3.524794e-001 2.667617e+000 176 195 209
9.896753e-001 1.671780e-001 2.721567e+000 184 195 204
-2.171159e-001 1.277253e+000 2.730378e+000 126 114 98
7.300345e-001 -4.495479e-001 2.426751e+000 185 203 217
7.559063e-001 -4.404272e-001 2.421552e+000 187 205 217
6.432961e-001 -4.305672e-001 2.478186e+000 181 200 214
4.728518e-001 -4.351278e-001 2.543667e+000 179 198 212
7.148737e-001 -4.096527e-001 2.459429e+000 182 201 215
7.220525e-001 -3.890221e-001 2.469675e+000 172 190 205
4.559245e-001 -3.993238e-001 2.572029e+000 171 190 205
6.314349e-001 -3.836578e-001 2.521201e+000 186 210 226
6.277539e-001 -3.822504e-001 2.513721e+000 186 210 226
1.719313e-001 -3.186723e-001 2.718506e+000 176 194 208
1.731517e-001 -3.196838e-001 2.724362e+000 176 194 208
1.631288e-001 -3.196698e-001 2.729202e+000 91 110 124
6.027878e-002 -3.146314e-001 2.768454e+000 156 174 186
1.752044e-001 -2.830058e-001 2.738103e+000 162 178 191
1.016166e-001 -2.746686e-001 2.770988e+000 166 182 192
9.562717e-001 1.289755e-001 2.714770e+000 84 94 106
-1.573518e-001 5.629784e-001 2.192389e+000 114 110 99
-1.573518e-001 5.629784e-001 2.192389e+000 114 110 99
-1.631068e-001 5.810913e-001 2.206035e+000 38 28 16
-1.893914e-001 5.854297e-001 2.218664e+000 129 121 110
2.064883e-001 7.068529e-001 2.162033e+000 137 124 107
-5.766863e-001 1.008364e+000 3.833863e+000 127 138 144
7.441530e-001 -4.145809e-001 2.452851e+000 77 100 114
7.441530e-001 -4.145809e-001 2.452851e+000 77 100 114
7.503477e-001 -3.785942e-001 2.472470e+000 191 210 225
6.171089e-001 -3.810371e-001 2.522533e+000 177 198 215
6.257528e-001 -3.789890e-001 2.524209e+000 79 105 120
1.666534e-001 -3.105288e-001 2.731667e+000 169 187 202
1.281453e-002 -3.197330e-001 2.783809e+000 162 180 194
9.495408e-001 -1.332644e-001 2.557482e+000 168 185 195
8.841158e-001 3.223074e-002 2.694412e+000 166 176 188
9.167193e-001 5.771362e-002 2.694891e+000 189 202 213
9.470977e-001 1.220674e-001 2.713128e+000 176 189 198
-2.053989e-001 5.213456e-001 2.180050e+000 133 126 108
-3.598962e-001 4.973566e-001 2.206667e+000 44 43 33
-3.602561e-001 4.981487e-001 2.205973e+000 44 43 33
-1.827007e-001 4.761039e-001 2.139766e+000 35 34 29
-1.827007e-001 4.761039e-001 2.139766e+000 35 34 29
3.085442e-001 1.968090e+000 2.884957e+000 121 118 97
3.085442e-001 1.968090e+000 2.884957e+000 121 118 97
4.248276e-001 1.813312e+000 2.930374e+000 132 115 95
3.854691e-001 1.664026e+000 2.795442e+000 136 121 98
-2.650244e-001 5.097480e-001 2.168404e+000 139 124 103
-1.677300e-001 4.778038e-001 2.126279e+000 48 48 44
-1.553686e-001 4.485929e-001 2.152915e+000 48 48 44
2.220894e-001 6.744542e-001 2.140546e+000 141 132 118
-5.876171e-001 4.540146e-001 2.279493e+000 136 121 100
-2.240753e-001 4.757721e-001 2.137817e+000 50 49 45
-1.379035e-001 7.343009e-001 2.287110e+000 43 45 39
2.518964e-001 9.478503e-001 2.326106e+000 51 42 26
2.532595e-001 9.401314e-001 2.327309e+000 51 42 26
2.915233e-001 5.487734e-001 2.007754e+000 133 124 109
-5.964311e-001 3.290424e-001 2.174350e+000 107 89 69
-3.174782e-001 1.120370e+000 2.666549e+000 133 118 97
-3.190306e-001 1.120872e+000 2.665621e+000 133 118 97
-3.503762e-001 5.060065e-001 2.204048e+000 55 54 49
-3.341475e-001 4.731683e-001 2.237721e+000 55 54 49
-3.196761e-001 7.590655e-001 2.387392e+000 57 53 50
-2.459735e-001 5.395812e-001 2.206357e+000 138 123 102
-2.056104e-001 6.612926e-001 2.266897e+000 48 47 43
-1.485163e-001 8.996661e-001 2.435708e+000 125 118 100
-1.493964e-001 9.034387e-001 2.432290e+000 125 118 100
-1.914820e-001 4.687164e-001 2.085347e+000 134 119 96
-3.541735e-001 1.597981e+000 3.049253e+000 127 112 91
-2.989555e-001 1.319122e+000 2.808500e+000 45 46 37
-3.723691e-001 4.843724e-001 2.201513e+000 134 119 96
-2.724851e-001 1.048133e+000 2.574099e+000 41 40 36
-2.502922e-001 9.613135e-001 2.514248e+000 127 113 93
-2.227730e-001 1.016649e+000 2.543836e+000 48 47 42
-2.164589e-001 1.073422e+000 2.581419e+000 48 45 40
-1.900451e-001 1.335090e+000 2.761829e+000 48 48 40
-2.097537e-001 1.367126e+000 2.664941e+000 129 114 95
-2.100938e-001 6.284086e-001 2.247851e+000 54 50 47
-1.908798e-001 7.919093e-001 2.362060e+000 52 49 44
1.978909e-001 4.909771e-001 2.003922e+000 55 54 52
2.840251e-001 5.047689e-001 1.968535e+000 60 55 49
2.849244e-001 4.989714e-001 1.972061e+000 60 55 49
-3.542351e-001 1.737048e+000 3.174981e+000 124 108 85
-4.493381e-001 1.774409e+000 2.957059e+000 124 109 85
-4.493381e-001 1.774409e+000 2.957059e+000 124 109 85
-2.251752e-001 1.845110e+000 3.214713e+000 45 38 31
-3.338043e-001 9.927851e-001 2.575282e+000 126 111 91
-2.985087e-001 9.895012e-001 2.558705e+000 127 110 92
-2.914768e-001 1.022760e+000 2.577238e+000 122 106 88
-2.914768e-001 1.022760e+000 2.577238e+000 122 106 88
-2.861846e-001 1.051728e+000 2.597662e+000 126 113 95
-3.002893e-001 6.845787e-001 2.350953e+000 123 107 91
-2.512445e-001 1.086652e+000 2.610696e+000 127 112 91
-2.302462e-001 1.099475e+000 2.610681e+000 45 41 40
-1.920343e-001 1.267191e+000 2.721900e+000 43 42 33
-2.065278e-001 1.356087e+000 2.674002e+000 133 118 99
2.603671e-001 1.694281e+000 2.791708e+000 132 120 98
3.121891e-001 1.615119e+000 2.796255e+000 57 50 47
2.503589e-001 8.236382e-001 2.238369e+000 138 127 108
2.059363e-001 3.578452e-001 1.915000e+000 158 150 131
2.438898e-001 3.668750e-001 1.899561e+000 157 146 128
2.737513e-001 3.697913e-001 1.888601e+000 162 149 132
2.755491e-001 3.669643e-001 1.891444e+000 162 149 132
3.356212e-001 4.024888e-001 1.872963e+000 118 105 86
-5.476738e-001 7.306483e-001 2.443814e+000 136 124 106
-5.522039e-001 4.902961e-001 2.275325e+000 52 44 33
-5.395232e-001 4.720737e-001 2.275734e+000 120 108 88
-5.266778e-001 5.597419e-001 2.324662e+000 43 42 37
-5.286465e-001 5.615952e-001 2.322675e+000 43 42 37
-5.021474e-001 7.228012e-001 2.438413e+000 54 50 45
-5.022044e-001 7.222110e-001 2.435853e+000 54 50 45
-4.535475e-001 1.949132e+000 3.026427e+000 120 106 80
-4.589382e-001 8.876167e-001 2.539620e+000 55 46 37
-2.256394e-001 1.851391e+000 3.229289e+000 127 114 91
-3.082240e-001 1.307368e+000 2.793349e+000 43 40 35
-3.602718e-001 7.060572e-001 2.367292e+000 47 47 40
-2.946412e-001 1.307586e+000 2.788454e+000 113 102 84
-2.937953e-001 1.308626e+000 2.788764e+000 113 102 84
-3.212044e-001 9.573817e-001 2.542258e+000 50 46 42
-3.212044e-001 9.573817e-001 2.542258e+000 50 46 42
-2.502977e-001 1.550541e+000 2.965197e+000 42 33 25
-2.506878e-001 1.552253e+000 2.963455e+000 42 33 25
-3.346582e-001 7.324536e-001 2.388268e+000 131 119 102
-3.342329e-001 7.703597e-001 2.404659e+000 120 110 92
-3.351094e-001 7.733862e-001 2.404321e+000 120 110 92
-3.401742e-001 6.616624e-001 2.321356e+000 125 114 96
-3.106787e-001 1.045677e+000 2.560331e+000 119 103 86
-3.157980e-001 1.094886e+000 2.565433e+000 129 117 98
-3.318779e-001 6.302424e-001 2.326003e+000 41 41 39
-3.215220e-001 7.324664e-001 2.372164e+000 56 53 48
-3.044319e-001 1.057281e+000 2.547743e+000 119 105 88
-3.044319e-001 1.057281e+000 2.547743e+000 119 105 88
-2.631242e-001 1.217751e+000 2.716042e+000 49 42 37
-3.078510e-001 7.316712e-001 2.361400e+000 127 111 96
-3.078510e-001 7.316712e-001 2.361400e+000 127 111 96
-3.026384e-001 7.750567e-001 2.392299e+000 119 110 93
-3.082510e-001 6.121525e-001 2.271744e+000 56 51 45
-2.889883e-001 4.803528e-001 2.220125e+000 127 116 95
-2.889883e-001 4.803528e-001 2.220125e+000 127 116 95
-2.595223e-001 1.357172e+000 2.628801e+000 115 108 89
-2.110286e-001 1.248516e+000 2.715523e+000 115 108 89
-1.931886e-001 1.318417e+000 2.750086e+000 50 45 41
-5.504366e-003 1.079879e+000 2.497627e+000 49 46 37
-3.312623e-003 1.080639e+000 2.503573e+000 49 46 37
2.678484e-002 1.101421e+000 2.517365e+000 54 47 39
9.970440e-002 1.606661e+000 2.865755e+000 50 41 34
2.705915e-001 3.867255e-001 1.900246e+000 107 92 73
2.941222e-001 3.908283e-001 1.893303e+000 114 98 82
3.598611e-001 3.981982e-001 1.868794e+000 116 103 84
3.598611e-001 3.981982e-001 1.868794e+000 116 103 84
3.744381e-001 3.854145e-001 1.852872e+000 161 152 133
-5.120109e-001 8.223603e-001 2.506413e+000 124 116 96
-4.519696e-001 1.773403e+000 2.951641e+000 130 114 92
-3.614827e-001 6.137433e-001 2.324845e+000 125 115 100
-3.698582e-001 6.278658e-001 2.311064e+000 125 115 100
-3.435300e-001 1.420140e+000 2.706600e+000 110 100 82
-2.860862e-001 1.250908e+000 2.744636e+000 43 39 35
-2.597889e-001 1.248876e+000 2.742002e+000 47 44 35
-2.547928e-001 1.291214e+000 2.770685e+000 49 45 37
-2.636092e-001 1.183261e+000 2.690748e+000 126 111 95
-2.657142e-001 1.127411e+000 2.655943e+000 127 116 96
-2.680597e-001 1.132595e+000 2.653203e+000 127 116 96
-2.962782e-001 1.460385e+000 2.690478e+000 129 116 99
-2.962782e-001 1.460385e+000 2.690478e+000 129 116 99
-2.367620e-001 1.217449e+000 2.707366e+000 42 38 29
-2.375147e-001 1.215160e+000 2.710083e+000 42 38 29
-2.178456e-001 1.246892e+000 2.725524e+000 45 42 33
-2.514549e-001 8.331697e-001 2.414510e+000 125 113 99
-2.523227e-001 8.360890e-001 2.412703e+000 125 113 99
-1.848726e-001 6.608650e-001 2.261405e+000 51 48 42
-1.846974e-001 6.613019e-001 2.261132e+000 51 48 42
-1.673235e-001 6.660705e-001 2.250934e+000 48 43 37
-1.624721e-001 6.589425e-001 2.256436e+000 48 43 37
1.300536e-001 1.881537e+000 3.077197e+000 125 110 90
2.075670e-001 5.707048e-001 2.046139e+000 137 126 106
2.075670e-001 5.707048e-001 2.046139e+000 137 126 106
3.005034e-001 6.694267e-001 2.102003e+000 141 128 111
3.005034e-001 6.694267e-001 2.102003e+000 141 128 111
3.556715e-001 8.679638e-001 2.234760e+000 141 132 113
3.556715e-001 8.679638e-001 2.234760e+000 141 132 113
3.725577e-001 3.799668e-001 1.836072e+000 98 86 70
-5.303311e-001 4.630810e-001 2.245653e+000 52 43 34
-4.974980e-001 7.576150e-001 2.466168e+000 117 108 93
-4.965812e-001 7.770194e-001 2.478598e+000 125 118 100
-4.866944e-001 4.842369e-001 2.293437e+000 142 130 118
-3.115566e-001 1.262295e+000 2.772751e+000 48 43 31
-3.530736e-001 8.039309e-001 2.433387e+000 44 42 33
-3.333792e-001 1.108423e+000 2.589890e+000 55 47 38
-3.215557e-001 4.894670e-001 2.235942e+000 134 128 113
-2.814224e-001 9.807910e-001 2.505117e+000 42 34 24
-2.814224e-001 9.807910e-001 2.505117e+000 42 34 24
-2.376509e-001 1.083437e+000 2.604068e+000 126 116 99
-2.106935e-001 1.204248e+000 2.683083e+000 42 34 25
-2.090573e-001 1.204267e+000 2.684168e+000 42 34 25
-1.888562e-001 5.547818e-001 2.191999e+000 56 49 41
-1.620226e-001 6.811323e-001 2.276671e+000 128 121 105
3.162659e-002 1.555353e+000 2.867622e+000 129 117 99
2.137084e-001 1.660495e+000 2.784576e+000 55 49 37
3.186632e-001 1.856727e+000 2.982010e+000 49 43 35
2.094229e-001 6.900847e-001 2.157767e+000 131 123 102
2.303289e-001 8.953704e-001 2.288208e+000 63 51 37
1.937338e-001 5.485507e-001 2.029188e+000 134 122 107
1.937338e-001 5.485507e-001 2.029188e+000 134 122 107
2.331054e-001 8.520130e-001 2.259591e+000 131 122 104
2.095849e-001 6.835509e-001 2.140935e+000 53 43 36
3.153135e-001 1.780582e+000 2.773269e+000 131 124 106
3.153135e-001 1.780582e+000 2.773269e+000 131 124 106
2.527853e-001 9.556530e-001 2.328975e+000 133 122 104
2.084455e-001 5.445798e-001 2.025416e+000 127 115 99
2.117180e-001 5.552507e-001 2.034074e+000 145 134 115
2.287133e-001 6.729944e-001 2.122402e+000 143 131 115
2.285734e-001 6.728378e-001 2.121601e+000 143 131 115
2.635303e-001 8.942600e-001 2.291687e+000 131 118 102
2.624981e-001 9.036288e-001 2.286420e+000 131 118 102
2.662700e-001 9.118150e-001 2.294945e+000 130 117 101
2.662700e-001 9.118150e-001 2.294945e+000 130 117 101
2.676478e-001 9.427896e-001 2.314129e+000 133 121 105
2.643712e-001 9.553949e-001 2.320611e+000 147 135 121
2.772515e-001 5.453607e-001 2.005912e+000 140 130 118
2.774697e-001 5.455601e-001 2.006432e+000 140 130 118
3.096783e-001 7.640890e-001 2.161537e+000 144 133 117
3.137175e-001 7.939223e-001 2.181992e+000 147 135 123
3.417565e-001 8.811035e-001 2.237023e+000 62 52 42
3.153013e-001 8.017446e-001 2.124114e+000 140 128 112
3.510861e-001 9.058700e-001 2.252015e+000 141 132 117
3.671795e-001 9.917575e-001 2.306900e+000 67 54 38
-6.152819e-001 1.879207e+000 3.006190e+000 98 92 86
-4.174201e-001 1.658253e+000 3.111847e+000 124 114 103
-5.082756e-001 7.565518e-001 2.462116e+000 47 37 26
-4.920642e-001 7.857881e-001 2.484587e+000 29 20 11
-4.859024e-001 7.769351e-001 2.475885e+000 44 35 27
-4.923896e-001 6.453768e-001 2.375574e+000 139 127 111
-3.222705e-001 9.912158e-001 2.517926e+000 125 114 103
-3.076088e-001 9.602000e-001 2.544098e+000 125 114 103
-3.119285e-001 7.320064e-001 2.382286e+000 52 46 37
-2.326043e-001 1.087220e+000 2.597326e+000 130 120 103
-2.329251e-001 9.073434e-001 2.447094e+000 44 32 20
-2.329251e-001 9.073434e-001 2.447094e+000 44 32 20
-1.776429e-001 8.078134e-001 2.369307e+000 119 112 102
-1.776429e-001 8.078134e-001 2.369307e+000 119 112 102
-1.896827e-001 5.319783e-001 2.207602e+000 58 52 42
-1.815857e-001 6.934390e-001 2.290266e+000 44 37 30
-1.700788e-001 6.910797e-001 2.298786e+000 131 125 113
-1.658577e-001 6.899198e-001 2.290049e+000 47 43 33
-1.587070e-001 6.556271e-001 2.274558e+000 130 124 110
-1.830146e-001 5.263600e-001 2.148657e+000 133 127 115
-1.613773e-001 6.245847e-001 2.233717e+000 139 133 121
-1.300824e-001 8.737306e-001 2.408129e+000 44 40 31
-1.300824e-001 8.737306e-001 2.408129e+000 44 40 31
-1.510330e-001 5.573448e-001 2.210937e+000 126 122 111
-1.510330e-001 5.573448e-001 2.210937e+000 126 122 111
1.223142e-001 1.624367e+000 2.884050e+000 132 120 103
3.133785e-001 1.873761e+000 2.993755e+000 51 45 35
2.781460e-001 1.633007e+000 2.818381e+000 48 43 31
3.252724e-001 1.868081e+000 2.985356e+000 49 40 33
2.875303e-001 1.990962e+000 2.885889e+000 45 39 30
2.327696e-001 9.148071e-001 2.302263e+000 67 55 41
2.252356e-001 8.228903e-001 2.241171e+000 66 54 39
2.309037e-001 8.301463e-001 2.239469e+000 143 131 115
2.309037e-001 8.301463e-001 2.239469e+000 143 131 115
2.150401e-001 8.419282e-001 2.195755e+000 146 135 117
2.303430e-001 8.843541e-001 2.217784e+000 147 133 120
2.198974e-001 7.293058e-001 2.133407e+000 61 51 39
2.390169e-001 8.368223e-001 2.189046e+000 52 44 30
2.436569e-001 8.826772e-001 2.215823e+000 141 131 114
2.577820e-001 8.483527e-001 2.245529e+000 141 131 114
2.420732e-001 9.003663e-001 2.218247e+000 140 128 112
2.359756e-001 6.635776e-001 2.115143e+000 58 46 30
2.774935e-001 9.514014e-001 2.319647e+000 54 41 25
3.168183e-001 8.799400e-001 2.243114e+000 66 54 39
3.047758e-001 7.874443e-001 2.179461e+000 50 38 23
3.328896e-001 9.886191e-001 2.318178e+000 62 49 33
3.183109e-001 8.162985e-001 2.212190e+000 145 135 119
3.286892e-001 8.804889e-001 2.243684e+000 57 47 37
3.286892e-001 8.804889e-001 2.243684e+000 57 47 37
3.313274e-001 8.955173e-001 2.255055e+000 59 47 35
2.944270e-001 5.744860e-001 2.024599e+000 133 124 109
3.359856e-001 8.736788e-001 2.236433e+000 144 137 120
3.359856e-001 8.736788e-001 2.236433e+000 144 137 120
3.269590e-001 9.780107e-001 2.225976e+000 144 134 122
3.274979e-001 9.404615e-001 2.208449e+000 63 53 40
3.166071e-001 8.012117e-001 2.126708e+000 139 127 112
3.434260e-001 8.320973e-001 2.200827e+000 134 125 110
3.098083e-001 6.675369e-001 2.049793e+000 50 41 26
3.066993e-001 5.690486e-001 2.006427e+000 150 139 123
3.387722e-001 7.893008e-001 2.170038e+000 54 42 29
3.584728e-001 9.408485e-001 2.277599e+000 147 137 122
3.584728e-001 9.408485e-001 2.277599e+000 147 137 122
3.696294e-001 9.569383e-001 2.296694e+000 54 42 26
3.652319e-001 9.472526e-001 2.274961e+000 53 41 27
-5.161573e-001 8.109147e-001 2.496265e+000 128 123 111
-4.965456e-001 8.089443e-001 2.499562e+000 132 127 113
-4.747572e-001 8.516638e-001 2.505892e+000 139 130 115
-4.747572e-001 8.516638e-001 2.505892e+000 139 130 115
-3.509302e-001 9.122092e-001 2.517543e+000 125 112 98
-3.427097e-001 6.995687e-001 2.377810e+000 121 121 110
-3.177776e-001 8.831779e-001 2.488189e+000 129 120 105
-3.316537e-001 6.892223e-001 2.362702e+000 131 120 99
-3.391204e-001 6.494663e-001 2.317452e+000 47 43 37
-3.144722e-001 6.850569e-001 2.347961e+000 47 40 30
-2.643189e-001 1.692070e+000 2.819972e+000 125 113 96
-2.894341e-001 5.322039e-001 2.212000e+000 116 108 94
-2.220809e-001 9.336836e-001 2.486599e+000 51 43 31
-1.784042e-001 8.003901e-001 2.354931e+000 125 121 112
-1.923453e-001 4.960414e-001 2.189608e+000 42 33 21
-1.923453e-001 4.960414e-001 2.189608e+000 42 33 21
-1.573545e-001 8.989585e-001 2.436512e+000 130 123 112
-1.690575e-001 7.761551e-001 2.344441e+000 110 105 93
-1.817719e-001 4.979795e-001 2.184224e+000 44 36 21
-1.635703e-001 5.300359e-001 2.191662e+000 141 137 127
-1.437360e-001 8.029388e-001 2.341755e+000 126 120 110
-1.362831e-001 8.115760e-001 2.363541e+000 36 29 19
-1.498761e-001 5.978584e-001 2.235803e+000 150 144 130
-1.498761e-001 5.978584e-001 2.235803e+000 150 144 130
1.366021e-001 1.606006e+000 2.850859e+000 130 121 105
2.080374e-001 8.856095e-001 2.231674e+000 44 34 21
1.867938e-001 5.695962e-001 2.059832e+000 55 43 29
1.956622e-001 6.630435e-001 2.111660e+000 147 138 121
1.999183e-001 7.243011e-001 2.141152e+000 47 38 21
1.899168e-001 5.656468e-001 2.055101e+000 143 134 117
2.446427e-001 9.657487e-001 2.334735e+000 57 44 30
2.446526e-001 9.630268e-001 2.338451e+000 57 44 30
2.021022e-001 6.729276e-001 2.112595e+000 141 131 119
2.005978e-001 6.630551e-001 2.117961e+000 141 131 119
2.198661e-001 7.586336e-001 2.152616e+000 145 133 119
2.322628e-001 7.233453e-001 2.178726e+000 145 133 119
2.123982e-001 6.460142e-001 2.088500e+000 139 130 113
2.478881e-001 8.598479e-001 2.266375e+000 135 123 107
2.123661e-001 5.846431e-001 2.062504e+000 47 35 19
2.462846e-001 8.592191e-001 2.258913e+000 128 116 103
2.462846e-001 8.592191e-001 2.258913e+000 128 116 103
2.290992e-001 8.322533e-001 2.188224e+000 144 135 118
2.767478e-001 5.893483e-001 2.040175e+000 63 52 36
2.824856e-001 6.097974e-001 2.034566e+000 150 141 124
2.824856e-001 6.097974e-001 2.034566e+000 150 141 124
2.782738e-001 5.829385e-001 2.002756e+000 135 126 113
3.456232e-001 9.527488e-001 2.308053e+000 62 50 34
2.967746e-001 7.477589e-001 2.105776e+000 60 47 31
2.967746e-001 7.477589e-001 2.105776e+000 60 47 31
3.276381e-001 9.622444e-001 2.222208e+000 145 137 124
3.503724e-001 9.242328e-001 2.262427e+000 56 46 34
3.384600e-001 1.059245e+000 2.260811e+000 125 112 95
-4.075624e-001 9.351003e-001 2.555714e+000 129 113 90
-4.125637e-001 6.996058e-001 2.385266e+000 130 114 91
3.300870e-001 8.324012e-001 2.205248e+000 76 67 53
2.066512e-001 5.378461e-001 2.047006e+000 120 107 90
-3.252802e-001 1.697003e+000 3.107148e+000 109 96 73
-5.742497e-001 5.058608e-001 2.306872e+000 126 111 92
-5.674377e-001 1.252110e+000 2.835356e+000 41 24 15
1.544514e-001 1.583599e+000 2.847929e+000 41 35 30
-3.154581e-001 5.623720e-001 2.251692e+000 130 114 88
-3.104188e-001 7.963454e-001 2.422104e+000 51 46 40
-3.320580e-001 1.280869e+000 2.774697e+000 120 104 80
-2.954569e-001 5.378663e-001 2.223437e+000 129 114 95
-3.766666e-001 1.554001e+000 3.041569e+000 113 98 76
8.445232e-002 1.595489e+000 2.866760e+000 49 40 31
-2.837820e-001 1.068473e+000 2.611549e+000 42 38 29
-2.961450e-001 1.166360e+000 2.690072e+000 114 99 76
-2.961450e-001 1.166360e+000 2.690072e+000 114 99 76
-3.724314e-001 6.100385e-001 2.295022e+000 126 114 91
-3.855338e-001 5.486077e-001 2.255106e+000 53 44 39
4.256241e-001 1.882104e+000 2.961918e+000 48 38 29
2.815651e-001 1.871547e+000 3.006584e+000 110 99 82
-2.298002e-001 4.489184e-001 2.122705e+000 143 130 112
-2.743080e-001 1.033975e+000 2.565887e+000 39 35 26
-3.702719e-001 7.387422e-001 2.391761e+000 120 107 84
-9.547246e-002 1.140639e+000 2.586840e+000 42 31 20
-9.547246e-002 1.140639e+000 2.586840e+000 42 31 20
3.539621e-001 3.544948e-001 1.864261e+000 80 67 50
3.602632e-001 9.616338e-001 2.285681e+000 36 23 7
3.577255e-001 9.536207e-001 2.281707e+000 129 116 100
3.577255e-001 9.536207e-001 2.281707e+000 129 116 100
3.310640e-001 7.812153e-001 2.164038e+000 128 116 100
3.007797e-001 7.130031e-001 2.133303e+000 128 115 98
3.217517e-001 8.878963e-001 2.248074e+000 129 117 100
-2.642816e-001 8.914742e-001 2.466747e+000 116 109 96
-2.642816e-001 8.914742e-001 2.466747e+000 116 109 96
-2.852775e-001 8.634334e-001 2.450062e+000 118 111 95
-2.809160e-001 8.590117e-001 2.453290e+000 118 111 95
-2.779374e-001 1.232304e+000 2.726773e+000 119 108 90
-4.714450e-001 8.360804e-001 2.508190e+000 34 26 10
3.219694e-001 7.590947e-001 2.159945e+000 56 44 29
3.219694e-001 7.590947e-001 2.159945e+000 56 44 29
3.240099e-001 8.142057e-001 2.201166e+000 128 116 102
1.057372e-001 1.626837e+000 2.896200e+000 125 111 93
-1.420203e-001 8.975933e-001 2.422237e+000 41 33 22
-1.420203e-001 8.975933e-001 2.422237e+000 41 33 22
-2.805340e-001 5.776010e-001 2.231985e+000 121 110 100
-4.758857e-001 7.546661e-001 2.466587e+000 125 116 107
-5.072236e-001 7.788310e-001 2.478428e+000 36 30 18
-5.081127e-001 7.801612e-001 2.477340e+000 36 30 18
2.555383e-001 2.576397e+000 2.899064e+000 161 175 188
-3.276904e-001 1.654420e+000 3.088547e+000 119 108 87
-5.888289e-001 8.752347e-001 2.592184e+000 27 14 9
-8.870411e-001 7.282997e-001 2.119131e+000 121 114 96
3.837795e-002 2.567912e+000 2.959014e+000 150 162 176
9.580698e-002 2.572855e+000 2.940865e+000 148 163 174
-5.901573e-001 4.591562e-001 2.280126e+000 138 127 109
-8.809503e-001 6.195426e-001 2.049293e+000 137 131 118
-8.036506e-001 2.308750e+000 3.105729e+000 109 102 85
-4.008439e-001 1.555445e+000 3.027568e+000 47 41 38
-1.007662e-001 9.622090e-001 2.462870e+000 53 52 49
-1.007662e-001 9.622090e-001 2.462870e+000 53 52 49
-5.789637e-001 7.491276e-001 2.484428e+000 136 125 106
-5.182880e-001 6.363938e-001 2.377701e+000 55 52 45
-5.578892e-001 4.533470e-001 2.252923e+000 65 61 55
-7.612844e-001 1.920631e+000 2.850572e+000 142 156 167
-1.980406e-001 1.253438e+000 2.712624e+000 45 42 37
-8.535884e-001 1.031735e+000 2.305109e+000 121 118 103
-2.871637e-001 7.386213e-001 2.362572e+000 56 57 51
5.802661e-001 2.574864e+000 2.774218e+000 181 197 212
5.802661e-001 2.574864e+000 2.774218e+000 181 197 212
-3.300774e-001 1.681622e+000 3.100552e+000 128 115 94
-3.749268e-001 1.550929e+000 3.017563e+000 50 41 38
-1.092043e-002 1.322684e+000 2.691911e+000 54 45 36
-8.495445e-001 1.088476e+000 2.340172e+000 123 118 103
1.619697e+000 2.680550e+000 2.451142e+000 147 141 129
3.387600e-001 1.819553e+000 2.946825e+000 47 38 29
-3.390594e-001 1.723249e+000 3.141972e+000 31 21 11
-3.390594e-001 1.723249e+000 3.141972e+000 31 21 11
3.507481e-001 1.707813e+000 2.847276e+000 128 116 103
3.507481e-001 1.707813e+000 2.847276e+000 128 116 103
-5.429692e-001 1.541725e+000 3.063662e+000 146 136 122
-3.092810e-001 1.274911e+000 2.772076e+000 125 119 101
-3.092810e-001 1.274911e+000 2.772076e+000 125 119 101
-1.295648e-001 8.916369e-001 2.420878e+000 54 46 43
3.562323e-001 1.725371e+000 2.860801e+000 131 119 103
-7.633354e-001 1.960351e+000 2.878317e+000 151 165 176
2.686210e-001 1.620194e+000 2.810487e+000 36 29 21
3.643026e-001 9.468595e-001 2.271360e+000 71 58 42
2.495692e-001 8.079734e-001 2.211914e+000 55 43 29
2.261117e-001 7.947894e-001 2.213588e+000 151 139 124
2.200898e-001 7.876889e-001 2.210012e+000 60 48 31
2.132210e-001 7.298441e-001 2.170110e+000 141 129 115
-1.826501e-001 6.745856e-001 2.280835e+000 46 39 29
3.236574e-001 6.950387e-001 2.099806e+000 71 62 47
-1.837536e-001 6.238145e-001 2.244090e+000 123 117 103
-3.298378e-001 6.120205e-001 2.288843e+000 138 130 116
3.891561e-001 1.804298e+000 2.917379e+000 125 113 99
-1.575744e-001 8.988721e-001 2.435528e+000 137 131 119
3.374291e-001 9.028073e-001 2.247842e+000 145 133 119
-1.627411e-001 8.167691e-001 2.373027e+000 131 122 112
2.251310e-001 8.230956e-001 2.235419e+000 55 43 28
3.046352e-001 6.564346e-001 2.079499e+000 59 47 35
-1.734398e-001 6.122552e-001 2.229582e+000 134 131 116
2.886450e-001 5.937164e-001 2.038093e+000 72 62 51
-2.740777e-001 1.033831e+000 2.576453e+000 45 42 35
-1.468599e-001 9.056677e-001 2.430599e+000 125 118 100
-3.066931e-001 5.236916e-001 2.170950e+000 128 116 93
-3.066931e-001 5.236916e-001 2.170950e+000 128 116 93
-2.321734e-001 5.504827e-001 2.164404e+000 50 49 44
-1.187745e-001 7.086299e-001 2.243652e+000 138 123 103
-3.648340e-001 1.535897e+000 3.012231e+000 121 104 84
-3.718909e-001 1.550196e+000 3.001064e+000 121 104 84
-3.717894e-001 7.549319e-001 2.404366e+000 49 48 43
-3.560605e-001 7.333465e-001 2.379535e+000 45 45 41
-2.765090e-001 1.319884e+000 2.802539e+000 48 48 43
-3.506505e-001 5.347434e-001 2.222011e+000 49 48 43
-3.506505e-001 5.347434e-001 2.222011e+000 49 48 43
-2.798054e-001 1.106609e+000 2.634903e+000 127 111 90
-2.798054e-001 1.106609e+000 2.634903e+000 127 111 90
-2.191492e-001 1.122269e+000 2.605012e+000 127 112 93
-5.363585e-001 6.170423e-001 2.375795e+000 137 124 100
-5.130019e-001 6.967797e-001 2.441628e+000 128 117 98
-3.651793e-001 1.754700e+000 3.157070e+000 120 106 80
-2.804303e-001 1.535493e+000 2.961157e+000 129 115 95
3.292548e-001 7.286788e-001 2.169501e+000 137 125 109
7.126902e-001 -8.173059e-002 2.329264e+000 203 219 233
-5.565894e-001 4.316572e-001 2.232193e+000 131 116 95
-3.551568e-001 1.839143e+000 3.215485e+000 42 32 26
-3.406626e-001 8.161242e-001 2.435373e+000 134 119 99
-3.052212e-001 1.133838e+000 2.653923e+000 52 45 37
8.994486e-001 1.202884e-001 2.699525e+000 191 204 214
3.213189e-001 7.862275e-001 2.215483e+000 135 126 109
8.276280e-001 4.918674e-002 2.462958e+000 194 210 223
9.255460e-001 1.942913e-001 2.638379e+000 138 155 165
-5.100486e-001 7.675535e-001 2.491194e+000 124 116 103
-3.298542e-001 9.580543e-001 2.530076e+000 135 129 110
-2.063264e-001 5.456630e-001 2.148194e+000 129 122 106
-1.753634e-001 6.017389e-001 2.203529e+000 127 121 107
2.385478e-001 9.469974e-001 2.326172e+000 151 139 125
2.275426e-001 8.175967e-001 2.243894e+000 66 54 39
9.710853e-001 1.411181e-001 2.712371e+000 44 58 70
-5.265085e-001 8.506664e-001 2.543809e+000 39 26 13
-2.644552e-001 1.170456e+000 2.661570e+000 119 109 99
-2.667826e-001 9.980931e-001 2.550979e+000 137 126 113
-1.754704e-001 8.207901e-001 2.369583e+000 123 117 105
-1.428194e-001 8.648454e-001 2.374518e+000 126 121 109
3.379850e-001 7.815394e-001 2.205162e+000 60 50 38
3.691518e-001 8.744391e-001 2.260434e+000 68 56 40
3.691518e-001 8.744391e-001 2.260434e+000 68 56 40
7.181604e-001 2.147464e-001 2.682453e+000 190 204 217
7.181604e-001 2.147464e-001 2.682453e+000 190 204 217
7.511918e-001 2.213508e-001 2.694778e+000 79 92 108
7.162656e-001 -5.446578e-002 2.371979e+000 203 221 233
8.922727e-001 7.151247e-002 2.675048e+000 51 64 76
-1.703297e-001 6.539396e-001 2.242756e+000 79 72 59
-4.925887e-001 6.998163e-001 2.423898e+000 54 48 34
3.569877e-001 9.214237e-001 2.283785e+000 123 111 95
-4.813112e-001 8.555107e-001 2.544171e+000 91 82 71
3.427674e-001 8.203960e-001 2.216161e+000 76 67 53
-2.185747e-001 8.708826e-001 2.427889e+000 128 112 90
-5.661898e-001 8.740743e-001 2.604932e+000 49 31 19
3.379103e-001 4.514969e-001 2.024939e+000 51 50 42
-1.082573e-001 9.721645e-001 2.458700e+000 40 41 31
-2.864040e-001 7.200322e-001 2.344148e+000 48 45 38
-3.250892e-001 5.694180e-001 2.242704e+000 130 114 88
-3.061277e-001 8.476223e-001 2.452511e+000 39 36 31
-5.660696e-001 1.186711e+000 2.868767e+000 140 133 114
7.633491e-001 3.901247e-001 2.070861e+000 133 62 72
-1.631682e-001 8.109047e-001 2.369387e+000 66 59 44
-2.917429e-001 1.113783e+000 2.652386e+000 46 42 34
-2.993540e-001 1.159912e+000 2.690542e+000 119 103 78
-2.993540e-001 1.159912e+000 2.690542e+000 119 103 78
-5.122438e-001 7.615616e-001 2.483758e+000 55 42 34
-3.045846e-001 5.115115e-001 2.180553e+000 116 105 88
-2.429165e-001 1.028365e+000 2.558643e+000 127 110 93
-2.429165e-001 1.028365e+000 2.558643e+000 127 110 93
-5.728770e-001 4.662584e-001 2.195995e+000 131 118 98
-5.253864e-001 6.520963e-001 2.386683e+000 127 113 93
-5.159089e-001 6.453101e-001 2.397329e+000 127 113 93
-5.459095e-001 4.928835e-001 2.273422e+000 41 32 22
-5.068393e-001 8.439436e-001 2.523256e+000 42 37 30
2.241687e-001 9.178563e-001 2.282712e+000 129 116 99
-1.481616e-001 5.215285e-001 2.173793e+000 92 84 71
-2.066595e-001 8.887766e-001 2.482202e+000 121 108 89
-2.353741e-001 8.939421e-001 2.453106e+000 49 42 33
-3.070777e-001 7.450379e-001 2.370133e+000 122 114 93
-2.566076e-001 9.727183e-001 2.563032e+000 45 38 28
-2.617605e-001 1.185578e+000 2.689648e+000 119 104 84
-3.327889e-001 7.843097e-001 2.413604e+000 122 110 96
-3.291224e-001 8.863182e-001 2.491359e+000 46 38 35
-3.140228e-001 8.750706e-001 2.502640e+000 46 38 35
-3.126984e-001 1.016841e+000 2.584912e+000 46 40 28
-3.161832e-001 9.885890e-001 2.563562e+000 39 32 24
-4.610930e-001 8.295037e-001 2.514859e+000 48 40 27
3.347531e-001 1.004053e+000 2.292407e+000 59 43 28
3.218380e-001 9.021101e-001 2.257796e+000 132 120 104
2.528213e-001 1.886414e+000 3.016162e+000 41 34 22
-1.526035e-001 5.446669e-001 2.191793e+000 44 37 27
-2.405214e-001 9.691916e-001 2.515887e+000 128 117 98
-2.859344e-001 1.125367e+000 2.664524e+000 112 104 89
-3.352175e-001 1.500326e+000 3.036445e+000 102 93 75
3.552242e-001 8.078290e-001 2.220902e+000 129 117 102
3.352042e-001 6.160860e-001 2.125415e+000 134 123 105
2.315044e-001 8.019888e-001 2.232357e+000 134 121 105
8.214938e-002 1.591165e+000 2.860246e+000 31 24 11
-4.965665e-001 7.579980e-001 2.466233e+000 123 113 98
3.397866e-001 6.318405e-001 2.083659e+000 61 50 32
3.397866e-001 6.318405e-001 2.083659e+000 61 50 32
2.351599e-001 8.721118e-001 2.255877e+000 132 119 102
-1.165794e-001 8.714521e-001 2.430286e+000 111 107 96
-3.000480e-001 4.533691e-001 2.140990e+000 49 36 24
-1.969654e-001 1.075643e+000 2.597550e+000 120 105 88
-3.182387e-001 5.678431e-001 2.249717e+000 137 126 105
-2.509596e-001 9.157688e-001 2.477635e+000 130 118 104
3.523503e-001 8.474802e-001 2.222979e+000 147 135 121
-4.964276e-001 7.498130e-001 2.471227e+000 133 125 106
-4.855799e-001 7.821624e-001 2.486676e+000 144 138 122
3.431388e-001 7.929754e-001 2.198255e+000 144 135 117
-1.905767e-001 6.420666e-001 2.249987e+000 34 28 16
2.476767e-001 9.263890e-001 2.345013e+000 147 134 118
2.401448e-001 9.593250e-001 2.329965e+000 147 134 118
-4.760999e-001 8.754820e-001 2.554013e+000 141 132 120
-1.450546e-001 9.171468e-001 2.417030e+000 132 124 112
-1.450546e-001 9.171468e-001 2.417030e+000 132 124 112
-3.419000e-001 7.971897e-001 2.487976e+000 62 53 43
3.567203e-001 8.528458e-001 2.238263e+000 130 118 104
8.604791e-001 1.549543e-001 2.707399e+000 51 63 75
9.080090e-001 8.135465e-002 2.665924e+000 47 57 71
3.071792e-001 6.961849e-001 2.149266e+000 65 52 36
3.052753e-001 6.922136e-001 2.145659e+000 65 52 36
-1.340601e-001 1.284583e+000 2.708218e+000 140 127 110
-1.749413e-001 9.675501e-001 2.487264e+000 60 58 54
7.442530e-003 1.543190e+000 2.798624e+000 63 59 51
-2.399065e-001 1.296742e+000 2.755238e+000 57 57 50
-1.375429e-002 1.125244e+000 2.534492e+000 50 41 36
-3.915008e-001 1.616628e+000 3.066843e+000 48 38 32
-5.337070e-001 7.460029e-001 2.457685e+000 148 143 131
8.553039e-002 1.607369e+000 2.872841e+000 154 146 136
1.359040e-001 1.604684e+000 2.860330e+000 147 142 131
-4.999581e-001 8.781473e-001 2.560530e+000 139 140 128
-2.562045e-001 1.197748e+000 2.696080e+000 139 127 110
-5.295979e-001 6.865798e-001 2.438826e+000 57 55 56
-2.546088e-001 9.955101e-001 2.542349e+000 142 129 112
-2.307394e-001 9.249060e-001 2.474728e+000 53 54 47
-3.376346e-001 1.137696e+000 2.692028e+000 144 132 116
-1.044211e-001 1.164677e+000 2.600786e+000 67 60 52
-3.071989e-001 1.104955e+000 2.656677e+000 146 134 119
3.251799e-001 6.860193e-001 2.140889e+000 144 136 123
3.251799e-001 6.860193e-001 2.140889e+000 144 136 123
-1.788274e-001 7.899766e-001 2.341467e+000 127 119 111
-4.709733e-001 8.415649e-001 2.534372e+000 122 116 104
2.426233e-001 9.596469e-001 2.342915e+000 72 60 43
2.503991e-001 9.571646e-001 2.340194e+000 153 141 125
2.572983e-001 8.897460e-001 2.289208e+000 88 79 62
1.369991e-001 3.134046e+000 2.396757e+000 174 190 203
-1.362495e-001 3.226574e+000 2.388856e+000 159 173 184
-6.820851e-002 3.208790e+000 2.386528e+000 159 173 184
-3.600925e-001 7.514206e-001 2.402009e+000 46 45 43
-3.113166e-001 5.829583e-001 2.256079e+000 50 47 40
-3.756026e-001 1.587549e+000 3.069204e+000 48 33 25
-2.893997e-001 1.308608e+000 2.796374e+000 110 100 82
-2.075631e-001 1.341522e+000 2.788101e+000 131 119 103
-2.866458e-001 6.151008e-001 2.271159e+000 38 31 24
1.178221e+000 2.825032e-001 2.097135e+000 180 198 212
2.859578e-001 1.883162e+000 2.999696e+000 34 30 19
1.050260e+000 9.863680e-001 3.397860e+000 48 38 29
-2.690002e-001 1.025359e+000 2.570871e+000 39 35 26
-3.715197e-001 6.274269e-001 2.309628e+000 120 108 87
1.419673e-001 1.579641e+000 2.835079e+000 111 98 82
-1.927908e-001 5.446712e-001 2.183438e+000 99 93 81
-1.927908e-001 5.446712e-001 2.183438e+000 99 93 81
-2.060500e-001 1.118237e+000 2.616157e+000 113 95 78
-5.010103e-001 8.199413e-001 2.520776e+000 138 126 106
-2.869930e-001 1.218645e+000 2.733482e+000 55 49 39
2.385394e-001 1.625682e+000 2.826318e+000 134 122 109
3.031904e-001 1.914549e+000 3.015473e+000 134 119 104
-2.306939e-001 1.860209e+000 3.184063e+000 52 51 47
3.573016e-001 1.839066e+000 2.987314e+000 148 141 130
3.548536e-001 1.842651e+000 2.972937e+000 148 141 130
-2.470198e-001 1.286219e+000 2.756577e+000 58 59 54
-2.470198e-001 1.286219e+000 2.756577e+000 58 59 54
-4.034125e-001 8.109909e-001 2.465007e+000 142 129 112
-3.107871e-001 5.424598e-001 2.218179e+000 141 129 111
2.473447e-001 9.454214e-001 2.325958e+000 81 70 59
-3.417005e-001 9.533100e-001 2.545383e+000 142 130 114
-3.434736e-001 9.732994e-001 2.564320e+000 54 53 52
-1.917887e-001 5.877001e-001 2.207599e+000 113 106 93
-3.381233e-001 6.306457e-001 2.294795e+000 133 125 106
-1.717102e-001 9.677010e-001 2.485960e+000 59 56 53
-5.387947e-001 7.617569e-001 2.494785e+000 146 133 115
-5.098443e-001 5.471550e-001 2.309341e+000 138 127 109
-3.277967e-001 1.021233e+000 2.592152e+000 144 132 116
-2.485608e-001 1.529961e+000 2.948837e+000 137 129 111
-3.590184e-001 5.974856e-001 2.279195e+000 119 111 105
-2.913629e-001 5.787980e-001 2.239383e+000 145 138 120
-3.076493e-001 1.279822e+000 2.781857e+000 62 58 48
-1.579282e-001 9.793616e-001 2.488732e+000 141 130 112
-5.778035e-001 4.417122e-001 2.237643e+000 62 53 44
-2.919820e-001 1.217659e+000 2.724350e+000 132 125 107
-5.090857e-001 6.347900e-001 2.376208e+000 103 99 90
-1.447870e-001 8.668380e-001 2.397148e+000 55 51 44
-2.240256e-001 8.363918e-001 2.409338e+000 145 130 109
-2.389207e-001 1.224778e+000 2.647905e+000 140 125 106
-2.597303e-001 8.106719e-001 2.416088e+000 54 49 43
-2.261988e-001 1.147631e+000 2.605228e+000 143 128 106
-2.642506e-001 1.040684e+000 2.573235e+000 48 47 42
-3.076549e-001 8.457743e-001 2.457446e+000 51 46 38
-1.731203e-001 1.294888e+000 2.675944e+000 44 45 40
-3.331990e-001 1.032472e+000 2.597876e+000 47 47 39
-3.331990e-001 1.032472e+000 2.597876e+000 47 47 39
-3.432171e-001 9.690608e-001 2.562722e+000 50 45 42
-3.550360e-001 8.945137e-001 2.519587e+000 50 46 39
-3.863288e-001 6.350875e-001 2.335734e+000 57 54 47
3.934966e-003 1.517147e+000 2.910244e+000 50 44 36
-2.902400e-001 7.752672e-001 2.404196e+000 54 49 46
-3.372853e-001 4.853180e-001 2.179802e+000 141 128 111
-3.287217e-001 9.160895e-001 2.522158e+000 58 50 48
2.530424e-001 1.695140e+000 2.790565e+000 135 120 97
-1.893446e-002 1.506852e+000 2.928428e+000 45 37 31
-2.069763e-001 1.276258e+000 2.805745e+000 43 42 31
-2.615294e-001 1.057799e+000 2.580030e+000 48 48 42
-2.655276e-001 1.028419e+000 2.561528e+000 49 47 38
-2.655665e-001 1.028218e+000 2.561767e+000 49 47 38
-3.324573e-001 8.821497e-001 2.496957e+000 57 51 41
3.626854e-001 1.721865e+000 2.716234e+000 130 121 104
-2.457345e-001 1.237650e+000 2.671558e+000 52 45 32
-2.767873e-001 1.246313e+000 2.729678e+000 47 42 33
2.565339e-001 9.513257e-001 2.321927e+000 142 130 115
-3.280274e-001 9.984631e-001 2.581367e+000 142 130 106
-4.636358e-001 8.364647e-001 2.527578e+000 147 138 123
-5.761759e-001 4.471685e-001 2.285812e+000 143 132 113
-1.652568e-001 8.534944e-001 2.396887e+000 48 44 33
-2.917637e-001 6.794381e-001 2.322966e+000 142 135 119
-4.751342e-001 8.550662e-001 2.552520e+000 142 134 118
-4.907312e-001 7.472415e-001 2.479034e+000 45 38 20
-4.872720e-001 8.650921e-001 2.542480e+000 103 94 80
-4.824762e-001 8.184293e-001 2.509415e+000 135 126 112
-4.485350e-001 8.530661e-001 2.536737e+000 68 58 49
-1.069347e-001 5.888332e-001 2.641463e+000 150 63 71
-1.356624e-001 5.542801e-001 2.584203e+000 148 65 72
-5.331875e-001 5.469145e-001 2.312160e+000 123 108 88
-5.331875e-001 5.469145e-001 2.312160e+000 123 108 88
-5.114875e-001 6.219452e-001 2.360299e+000 127 114 94
-4.982392e-001 7.569088e-001 2.464859e+000 117 108 93
-5.364196e-001 7.407929e-001 2.452053e+000 50 44 32
-5.244744e-001 7.893044e-001 2.466386e+000 124 116 103
-4.885605e-001 7.518405e-001 2.459209e+000 40 28 19
7.160908e-002 1.604860e+000 2.876274e+000 125 110 89
-5.204349e-001 1.583207e+000 3.073634e+000 30 16 11
-4.888782e-001 7.538129e-001 2.464157e+000 31 22 8
-5.345092e-001 4.655760e-001 2.252206e+000 130 122 104
-4.874070e-001 8.654139e-001 2.542765e+000 103 94 80
-4.884741e-001 8.779450e-001 2.547217e+000 55 48 41
-4.884741e-001 8.779450e-001 2.547217e+000 55 48 41
-4.869454e-001 7.824259e-001 2.486878e+000 144 138 122
-4.774672e-001 7.535676e-001 2.468946e+000 145 136 121
-4.716278e-001 8.269937e-001 2.513224e+000 64 58 42
3.490809e-001 1.850500e+000 2.962339e+000 120 112 102
3.490809e-001 1.850500e+000 2.962339e+000 120 112 102
-2.581759e-001 1.812247e+000 3.214396e+000 145 132 113
-1.697945e-001 1.840641e+000 3.203236e+000 140 127 110
-3.115108e-001 1.865507e+000 3.295090e+000 130 117 98
-5.759348e-001 9.164479e-001 2.630084e+000 148 139 124
-4.862394e-001 6.274690e-001 2.356234e+000 64 63 65
-4.638289e-001 1.817281e+000 3.320139e+000 145 133 116
-2.111915e-001 1.073242e+000 2.582550e+000 58 62 58
1.334471e-001 1.609478e+000 2.850477e+000 59 52 44
-2.797418e-001 9.507290e-001 2.516718e+000 156 151 137
-4.828382e-001 7.899760e-001 2.479833e+000 141 141 131
-4.873789e-001 7.570997e-001 2.454788e+000 56 54 39
-1.826441e-001 9.669075e-001 2.487947e+000 60 56 45
-5.149289e-001 8.113890e-001 2.493207e+000 145 144 133
-5.548799e-001 5.675842e-001 2.318453e+000 58 58 47
-4.631777e-001 7.758795e-001 2.475753e+000 139 125 106
-4.631777e-001 7.758795e-001 2.475753e+000 139 125 106
-5.219834e-001 7.183985e-001 2.440126e+000 134 121 102
-5.094214e-001 5.454472e-001 2.310035e+000 138 127 109
-5.132347e-001 8.390505e-001 2.524532e+000 53 39 28
-5.220252e-001 7.561179e-001 2.475514e+000 133 124 111
-4.909321e-001 8.096372e-001 2.507561e+000 59 52 42
-4.723746e-001 8.121250e-001 2.504102e+000 60 51 43
-4.859174e-001 7.054695e-001 2.432292e+000 137 124 105
7.320956e-002 4.162905e-001 4.170639e+000 51 37 27
-4.931402e-001 7.775272e-001 2.440243e+000 141 133 120
1.113729e+001 1.387915e+001 -2.886934e+001 100 98 87
7.532586e-001 1.495540e+000 3.809812e+000 148 140 122
7.303038e-001 1.422928e+000 3.733234e+000 151 143 124
7.691729e-001 1.522665e+000 3.834954e+000 154 148 126
5.204781e-002 6.135452e-001 2.851931e+000 155 65 74
-2.878662e-002 6.708216e-001 2.786595e+000 158 140 116
-5.124624e-001 4.710774e-001 2.261075e+000 155 138 110
-5.226258e-001 4.310120e-001 2.227005e+000 160 140 114
-4.736527e-001 7.060995e-001 2.450240e+000 68 64 54
-5.372327e-001 4.674083e-001 2.242056e+000 162 142 116
-6.852885e-002 6.256218e-001 2.715674e+000 152 70 74
-4.436622e-001 1.429721e+000 3.135940e+000 56 49 38
-4.831274e-002 6.146068e-001 2.726066e+000 148 67 70
-2.231518e-001 4.306554e-001 2.410212e+000 160 143 117
-5.545270e-001 5.686816e-001 2.317756e+000 68 62 56
-5.719898e-001 4.665416e-001 2.235421e+000 164 146 123
