ply
format ascii 1.0
element face 0
property list uchar int vertex_indices
element vertex 750
property float x
property float y
property float z
property uchar diffuse_red
property uchar diffuse_green
property uchar diffuse_blue
end_header
1.890417e+000 -1.150299e+000 -6.872717e+000 203 182 70
2.161235e+000 -8.885049e-001 -6.314709e+000 221 195 83
2.161235e+000 -8.885049e-001 -6.314709e+000 221 195 83
2.181908e+000 -8.794719e-001 -6.278240e+000 177 153 51
2.178836e+000 -7.759788e-001 -6.282818e+000 214 189 76
2.195738e+000 -7.051240e-001 -6.273174e+000 215 190 73
2.169937e+000 -8.165908e-001 -6.295738e+000 215 191 85
2.489636e+000 -5.002875e-001 -5.473657e+000 226 182 185
2.140684e+000 -9.815269e-001 -6.351602e+000 212 189 70
1.889644e+000 -1.107755e+000 -6.865139e+000 41 28 0
1.889644e+000 -1.107755e+000 -6.865139e+000 41 28 0
2.499582e+000 -3.871811e-001 -5.464021e+000 234 192 195
2.490770e+000 -4.362281e-001 -5.479224e+000 239 180 181
2.089042e+000 -6.488848e-001 -6.454118e+000 218 186 68
-8.648896e-001 4.743879e-001 -4.681886e+000 21 27 43
-8.633756e-001 4.748771e-001 -4.682186e+000 21 27 43
-8.648896e-001 4.743879e-001 -4.681886e+000 21 27 43
-8.313811e-001 -2.598744e-001 -5.156249e+000 23 24 28
8.718718e-001 2.730905e-002 -5.759920e+000 210 178 197
7.163479e-002 3.186915e-001 -5.622141e+000 152 22 32
-9.081477e-001 5.850706e-001 -4.704471e+000 192 205 242
1.045743e+000 -4.078239e-002 -5.611107e+000 180 117 131
1.323339e+000 1.733113e-001 -5.658589e+000 188 119 130
1.004528e+000 5.300346e-001 -5.610711e+000 213 193 208
1.004528e+000 5.300346e-001 -5.610711e+000 213 193 208
3.772190e-001 4.537734e-001 -5.499058e+000 72 2 3
-8.484210e-001 3.502008e-001 -4.736255e+000 187 201 240
8.322116e-001 5.231458e-001 -5.614409e+000 95 0 2
4.711387e-001 9.517557e-001 -5.656518e+000 163 18 29
2.309968e+000 -1.143501e+000 -5.967151e+000 202 197 106
9.982194e-001 1.866116e-002 -5.687265e+000 72 5 8
2.226466e-002 4.104250e-001 -5.605246e+000 225 56 94
2.226466e-002 4.104250e-001 -5.605246e+000 225 56 94
-5.578480e-001 4.016390e-001 -4.755657e+000 108 54 70
1.750521e-001 6.097395e-001 -5.514379e+000 217 202 221
-9.135167e-001 4.704887e-001 -4.662487e+000 18 20 30
4.152644e-001 1.039942e+000 -5.660708e+000 171 150 172
2.494455e+000 -5.005379e-001 -5.481226e+000 226 182 185
9.071540e-001 -9.860966e-002 -5.697069e+000 51 9 18
8.252517e-001 1.006394e-001 -5.803332e+000 139 29 46
-4.740385e-001 2.715424e-001 -4.704018e+000 157 99 113
1.050490e+000 6.192155e-001 -5.628611e+000 44 9 7
1.359562e-001 5.383540e-001 -5.500685e+000 82 11 26
-5.727723e-001 4.439623e-001 -4.746264e+000 235 181 195
-9.522317e-001 4.244580e-001 -4.708104e+000 183 230 255
-8.856032e-001 5.402227e-001 -4.576757e+000 179 225 255
-9.089334e-001 6.018292e-001 -4.684725e+000 243 231 243
-8.159440e-001 7.047989e-001 -4.636750e+000 225 165 177
9.580641e-001 -4.974737e-002 -5.713639e+000 66 13 22
1.235518e+000 6.204217e-002 -5.607969e+000 95 35 39
1.114538e+000 6.946666e-002 -5.662141e+000 172 101 113
6.603785e-001 1.661319e-001 -5.755652e+000 115 4 13
9.108207e-001 5.654518e-001 -5.599828e+000 104 11 16
-7.224925e-002 5.711913e-001 -5.511781e+000 108 9 22
-8.754793e-001 4.424376e-001 -4.696787e+000 255 254 254
5.562832e-001 9.120474e-001 -5.663555e+000 153 14 28
-9.160002e-001 7.150870e-001 -4.651821e+000 227 167 179
-1.023134e+000 7.143455e-001 -4.663727e+000 133 74 96
4.466532e-001 1.085501e+000 -5.653453e+000 166 22 33
1.576459e+000 1.226684e+000 -5.387751e+000 69 31 28
1.576459e+000 1.226684e+000 -5.387751e+000 69 31 28
1.796596e+000 -3.408231e+000 -1.276592e+001 97 90 106
-1.212264e+000 -2.802682e+000 -1.300390e+001 72 44 55
2.169767e+000 -8.576635e-001 -6.315162e+000 214 191 78
-8.332185e-001 -1.992452e-001 -5.134742e+000 251 253 255
9.186879e-001 -6.101869e-002 -5.752624e+000 173 134 153
2.111025e+000 5.637746e-001 -6.374760e+000 110 64 25
-8.558146e-001 3.778802e-001 -4.698344e+000 165 217 254
-9.798083e-001 3.972649e-001 -4.713954e+000 168 156 197
-6.163997e-001 5.745430e-001 -4.672875e+000 170 104 126
-8.657662e-001 6.872310e-001 -4.643733e+000 178 107 123
-9.083610e-001 6.839136e-001 -4.642112e+000 174 107 127
-9.091039e-001 6.842393e-001 -4.645421e+000 174 107 127
1.694341e+000 1.350382e+000 -5.532482e+000 69 30 30
9.852681e-001 1.553063e+000 -5.808345e+000 140 24 34
2.552100e+000 -2.918924e+000 -1.040373e+001 103 99 121
2.306948e+000 -3.026944e+000 -1.119714e+001 108 101 117
2.420360e+000 -2.569884e+000 -1.076469e+001 64 53 67
2.338171e+000 -2.366725e+000 -1.111157e+001 74 53 61
2.290599e+000 -2.372773e+000 -1.117014e+001 124 120 134
2.290599e+000 -2.372773e+000 -1.117014e+001 124 120 134
2.473835e+000 -6.025798e-001 -5.537237e+000 240 184 195
2.490508e+000 -5.683087e-001 -5.475665e+000 242 193 212
2.140425e+000 -6.980255e-001 -6.383688e+000 164 169 117
2.498809e+000 -4.863065e-001 -5.453626e+000 234 173 188
2.187111e+000 -6.088625e-001 -6.267922e+000 177 147 41
9.649183e-001 -1.152638e-002 -5.713732e+000 171 124 141
-5.012212e-001 -5.843354e-002 -4.851564e+000 226 178 187
-4.925889e-001 -1.548875e-002 -4.818048e+000 219 171 182
-4.527649e-001 6.106716e-002 -4.767206e+000 157 101 112
-4.527649e-001 6.106716e-002 -4.767206e+000 157 101 112
-8.913296e-001 5.566606e-002 -4.733461e+000 215 151 168
-4.595810e-001 2.175085e-001 -4.717288e+000 157 99 112
-8.817894e-001 2.043216e-001 -4.765750e+000 245 182 191
1.232186e-001 5.660643e-001 -5.478758e+000 233 218 230
1.512339e-001 5.850520e-001 -5.478664e+000 229 219 231
-8.613662e-001 6.008470e-001 -4.680067e+000 241 217 230
3.891495e-001 8.998633e-001 -5.642365e+000 203 132 150
-9.455506e-001 6.989528e-001 -4.645441e+000 232 172 179
4.464755e-001 1.010776e+000 -5.653537e+000 152 22 54
2.754503e+000 -3.305431e+000 -9.905918e+000 111 103 121
2.451125e+000 -3.619064e+000 -1.081470e+001 100 95 114
2.545860e+000 -3.464388e+000 -1.057565e+001 115 112 130
2.562518e+000 -3.128359e+000 -1.048077e+001 117 106 126
2.452189e+000 -2.698083e+000 -1.083615e+001 73 58 66
2.119947e+000 -2.212004e+000 -1.159292e+001 107 92 111
1.929211e+000 -2.376662e+000 -1.227682e+001 97 86 99
2.082025e+000 -2.005126e+000 -1.176345e+001 107 91 101
2.497928e+000 -7.016799e-001 -5.466952e+000 247 142 75
2.173976e+000 -8.183332e-001 -6.305676e+000 215 191 85
2.499704e+000 -5.266816e-001 -5.460642e+000 249 179 194
2.516866e+000 -3.435473e-001 -5.397659e+000 215 78 123
9.081545e-001 2.015752e-003 -5.716437e+000 223 194 208
9.102247e-002 5.515322e-001 -5.478712e+000 239 225 235
-9.047909e-002 5.417585e-001 -5.479646e+000 209 176 193
1.557490e+000 1.012651e+000 -5.301247e+000 159 96 109
5.669341e-001 9.489996e-001 -5.664244e+000 212 136 155
9.792502e-001 -3.041441e-001 -5.558498e+000 215 148 157
-1.140073e-002 4.859025e-001 -5.565520e+000 243 238 244
-2.494573e-001 5.492288e-001 -5.306043e+000 34 19 22
1.965960e+000 7.857526e-001 -6.347542e+000 192 132 142
-6.015235e-002 2.720526e-001 -5.653523e+000 235 234 242
1.827462e-002 1.449751e+000 -5.970461e+000 161 15 26
-1.273770e+000 -2.941647e+000 -1.290364e+001 58 58 69
-4.141790e-002 1.615037e-001 -5.812720e+000 198 32 51
1.408851e+000 2.928985e-001 -5.789660e+000 67 9 9
-2.996873e+000 3.223694e+000 -1.228946e+001 23 21 26
3.643991e-001 -3.473344e+000 -1.356512e+001 9 9 9
7.748858e-001 5.023757e-002 -5.799960e+000 238 230 239
-1.273199e-001 2.004143e-001 -5.716489e+000 230 212 229
2.310539e+000 -1.143879e+000 -5.968519e+000 202 197 106
1.170272e+000 9.143577e-002 -5.653827e+000 189 123 137
2.896863e-001 4.759942e-001 -5.508830e+000 230 208 219
-3.337771e-002 7.246153e-001 -5.569562e+000 91 1 7
1.551718e+000 1.373004e+000 -5.492074e+000 169 119 130
8.599126e-001 -4.997053e+000 -1.504208e+001 42 42 51
2.411247e+000 -3.652019e+000 -1.100391e+001 37 33 48
2.411247e+000 -3.652019e+000 -1.100391e+001 37 33 48
2.998684e+000 -2.918402e+000 -9.198508e+000 60 49 63
2.673452e+000 -2.743593e+000 -1.004731e+001 64 55 67
2.414137e+000 -2.041009e+000 -8.315760e+000 188 174 148
5.043598e-001 -3.264620e+000 -1.335598e+001 104 81 65
2.508395e+000 -3.794725e-001 -5.433747e+000 224 181 194
2.508395e+000 -3.794725e-001 -5.433747e+000 224 181 194
2.212041e+000 -3.324267e-001 -6.268771e+000 220 184 47
6.074989e-001 1.643824e+000 -5.946022e+000 67 1 0
2.685235e+000 -3.199845e+000 -1.010474e+001 53 42 52
2.678038e+000 -3.190418e+000 -1.007796e+001 53 42 52
2.303238e+000 -1.938677e+000 -8.604290e+000 178 171 140
1.550449e+000 -2.588490e+000 -1.265246e+001 110 84 65
1.420435e+000 -2.541500e+000 -1.267883e+001 18 29 45
2.081113e+000 -2.164572e+000 -1.176580e+001 54 41 43
2.474630e+000 -6.072738e-001 -5.478272e+000 225 190 208
2.059639e+000 3.091976e-001 -6.477878e+000 147 111 50
5.026950e-001 8.145030e-001 -5.606790e+000 148 19 29
1.695964e+000 1.349944e+000 -5.536777e+000 69 30 30
2.347345e+000 -3.907301e+000 -1.110473e+001 84 79 97
2.551757e+000 -3.314407e+000 -1.057816e+001 98 89 106
2.860263e+000 -2.862996e+000 -9.491030e+000 56 43 54
1.774870e+000 -3.704207e+000 -1.274686e+001 10 10 12
1.787008e+000 -3.729191e+000 -1.282680e+001 10 10 12
2.717096e+000 -2.860182e+000 -9.964605e+000 59 47 61
2.717096e+000 -2.860182e+000 -9.964605e+000 59 47 61
2.527258e+000 -2.976710e+000 -1.056756e+001 59 52 64
2.527258e+000 -2.976710e+000 -1.056756e+001 59 52 64
1.679589e+000 -2.778684e+000 -1.289702e+001 47 38 45
1.999204e+000 -2.326168e+000 -1.194757e+001 52 42 42
1.895043e+000 -1.152135e+000 -6.884888e+000 203 182 70
2.477519e+000 -6.096794e-001 -5.484231e+000 227 196 213
2.504711e+000 -4.344460e-001 -5.429670e+000 236 188 201
2.510605e+000 -3.753121e-001 -5.405194e+000 245 191 207
2.121440e+000 -2.917786e-001 -6.248058e+000 114 69 10
-5.224168e-001 -1.111373e-001 -4.886701e+000 229 178 190
-4.266183e-001 1.524509e-001 -4.751536e+000 225 164 172
4.942754e-001 1.955428e-001 -5.766670e+000 125 4 14
2.095991e+000 2.566336e-001 -6.494704e+000 84 49 7
-3.673426e-001 3.830042e-001 -4.750285e+000 207 155 168
2.160743e+000 5.876820e-001 -6.370461e+000 176 139 90
3.833687e-001 5.204835e-001 -5.551170e+000 156 27 44
-5.895734e-001 5.260553e-001 -4.689804e+000 189 126 143
-5.895734e-001 5.260553e-001 -4.689804e+000 189 126 143
3.082414e-001 6.481976e-001 -5.423701e+000 219 197 209
4.535233e-001 6.656822e-001 -5.481020e+000 246 224 228
4.535233e-001 6.656822e-001 -5.481020e+000 246 224 228
-6.154264e-001 5.752100e-001 -4.671767e+000 170 104 126
5.345315e-001 7.821565e-001 -5.643840e+000 205 172 197
-6.993624e-001 6.352094e-001 -4.648778e+000 233 178 193
-7.392635e-001 6.682242e-001 -4.649695e+000 226 172 182
-1.000853e+000 6.875370e-001 -4.655549e+000 229 167 180
1.216776e+000 1.061223e+000 -5.279965e+000 184 132 143
2.820409e+000 -3.131717e+000 -9.693793e+000 52 45 57
2.517718e+000 -3.421958e+000 -1.067623e+001 101 97 119
2.453671e+000 -3.411062e+000 -1.078354e+001 105 97 118
2.206821e+000 -3.575158e+000 -1.147881e+001 53 51 65
2.189763e+000 -3.511056e+000 -1.149609e+001 85 78 96
2.137590e+000 -3.463196e+000 -1.167725e+001 39 35 49
2.795784e+000 -2.760524e+000 -9.756028e+000 57 41 47
2.795784e+000 -2.760524e+000 -9.756028e+000 57 41 47
2.417607e+000 -2.883833e+000 -1.091499e+001 57 46 54
1.668552e+000 -3.465037e+000 -1.313986e+001 88 85 103
2.443100e+000 -2.134370e+000 -8.239699e+000 187 178 144
2.563693e+000 -2.599435e+000 -1.033490e+001 67 55 65
1.728843e+000 -3.084505e+000 -1.292792e+001 54 48 60
2.303500e+000 -2.012951e+000 -8.552979e+000 113 98 80
2.127920e+000 -2.398350e+000 -1.167597e+001 63 47 57
2.338632e+000 -2.252929e+000 -1.100991e+001 121 118 134
2.132640e+000 -8.693057e-001 -6.396462e+000 216 192 86
2.482858e+000 -6.357726e-001 -5.560975e+000 221 70 104
2.480503e+000 -5.538194e-001 -5.525319e+000 239 180 193
2.042974e+000 -5.607982e-001 -6.583048e+000 228 191 78
2.227779e+000 -4.769417e-001 -6.198876e+000 229 196 57
2.227779e+000 -4.769417e-001 -6.198876e+000 229 196 57
8.404720e-001 -3.807698e-001 -5.577278e+000 169 46 60
2.178267e+000 -3.662151e-001 -6.253278e+000 97 62 2
2.515937e+000 -3.187824e-001 -5.386211e+000 232 191 210
2.152844e+000 -3.281677e-001 -6.258124e+000 120 75 14
2.516774e+000 -2.651170e-001 -5.424011e+000 240 192 195
2.117044e+000 2.709329e-001 -6.447854e+000 176 139 48
-3.470482e-001 4.014610e-001 -4.790053e+000 171 123 144
-3.343330e-001 4.291993e-001 -4.813522e+000 220 191 199
-9.968350e-001 4.390243e-001 -4.709512e+000 173 160 195
1.640504e-001 5.636516e-001 -5.482544e+000 73 21 45
3.893431e-001 6.084591e-001 -5.494200e+000 243 214 219
1.737992e-001 6.558765e-001 -5.520931e+000 71 6 13
-5.888607e-001 5.697160e-001 -4.694997e+000 237 174 184
-8.693655e-001 6.615698e-001 -4.637635e+000 228 165 173
-9.250299e-001 7.458216e-001 -4.658557e+000 157 100 122
-3.876188e+000 4.001026e+000 -1.190144e+001 146 93 86
2.222104e+000 -3.941401e+000 -1.143957e+001 51 45 59
2.261489e+000 -3.884454e+000 -1.131918e+001 89 87 105
1.011471e+000 -5.111160e+000 -1.492097e+001 48 48 57
2.252634e+000 -3.772087e+000 -1.129062e+001 88 85 102
2.699510e+000 -3.353958e+000 -1.012903e+001 59 54 71
2.984395e+000 -3.008313e+000 -9.211544e+000 56 47 62
2.404069e+000 -3.490304e+000 -1.099458e+001 99 95 118
2.343794e+000 -3.521862e+000 -1.119827e+001 56 46 58
2.837568e+000 -2.993628e+000 -9.689624e+000 117 110 126
2.379567e+000 -3.289069e+000 -1.092762e+001 53 46 61
2.533733e+000 -3.157837e+000 -1.055238e+001 68 59 74
2.174459e+000 -3.421085e+000 -1.160719e+001 88 81 97
1.656683e+000 -3.867931e+000 -1.316271e+001 36 26 32
2.515432e+000 -3.075652e+000 -1.058959e+001 100 93 109
1.998889e+000 -3.503491e+000 -1.213988e+001 52 47 68
1.998889e+000 -3.503491e+000 -1.213988e+001 52 47 68
2.665751e+000 -2.817942e+000 -1.008881e+001 47 34 47
2.116998e+000 -3.284480e+000 -1.183455e+001 90 78 86
1.858112e+000 -3.473300e+000 -1.255843e+001 44 36 49
2.457739e+000 -2.900594e+000 -1.067860e+001 57 46 60
2.000010e+000 -3.157409e+000 -1.210253e+001 57 49 60
1.997429e+000 -3.074208e+000 -1.205613e+001 89 85 99
1.997429e+000 -3.074208e+000 -1.205613e+001 89 85 99
2.508695e+000 -2.546989e+000 -1.055800e+001 106 99 115
2.508695e+000 -2.546989e+000 -1.055800e+001 106 99 115
2.423491e+000 -2.573297e+000 -1.077788e+001 64 53 67
2.423491e+000 -2.573297e+000 -1.077788e+001 64 53 67
1.293035e+000 -3.043148e+000 -1.426599e+001 74 67 78
2.165881e+000 -2.217462e+000 -1.155391e+001 68 55 68
2.311793e+000 -1.141331e+000 -5.970838e+000 197 196 106
2.347260e+000 -2.043635e+000 -1.102753e+001 71 60 79
2.206149e+000 -2.026971e+000 -1.128257e+001 91 79 87
2.206149e+000 -2.026971e+000 -1.128257e+001 91 79 87
2.041975e+000 -2.042417e+000 -1.184050e+001 62 50 55
2.487533e+000 -5.135963e-001 -5.508096e+000 233 187 193
2.242646e+000 -2.635124e-001 -6.175457e+000 175 144 33
2.523107e+000 -2.250801e-001 -5.412616e+000 237 192 205
2.169573e+000 5.128267e-001 -6.327421e+000 139 84 16
-7.513983e-001 4.196213e-001 -4.696987e+000 182 160 191
-9.499095e-001 4.638511e-001 -4.679520e+000 147 198 228
-8.218525e-001 5.900349e-001 -4.669851e+000 235 199 217
5.364961e-001 8.279298e-001 -5.617914e+000 202 159 176
-7.215636e-001 6.881964e-001 -4.649244e+000 146 87 107
3.902238e-001 9.004116e-001 -5.643596e+000 203 132 150
-8.262443e-001 7.635698e-001 -4.661058e+000 216 161 173
5.282323e-001 1.042145e+000 -5.677641e+000 142 34 59
-3.872343e+000 3.539950e+000 -1.187927e+001 144 80 72
-5.281061e+000 3.586816e+000 -1.158922e+001 128 72 58
-5.281061e+000 3.586816e+000 -1.158922e+001 128 72 58
-5.430184e+000 3.572499e+000 -1.150958e+001 125 72 64
-5.430184e+000 3.572499e+000 -1.150958e+001 125 72 64
-3.789365e+000 3.692108e+000 -1.196008e+001 129 57 41
-3.876834e+000 3.708657e+000 -1.200783e+001 130 57 30
-4.977004e+000 3.665626e+000 -1.157558e+001 130 72 56
-3.755396e+000 3.770344e+000 -1.193114e+001 132 53 30
-4.850586e+000 3.777674e+000 -1.163547e+001 134 72 65
-4.807684e+000 3.864785e+000 -1.160357e+001 135 75 58
-3.463664e+000 3.990913e+000 -1.195468e+001 143 85 86
2.357799e+000 -1.669662e+000 -5.819611e+000 214 38 63
7.058260e-001 2.475962e-001 -5.668941e+000 204 29 53
7.058260e-001 2.475962e-001 -5.668941e+000 204 29 53
-7.223579e-001 -3.177775e-001 -5.168833e+000 235 183 196
-7.705660e-001 5.162041e-001 -4.681187e+000 162 189 226
2.113201e+000 1.071343e+000 -5.996554e+000 212 176 116
-3.153971e+000 3.785849e+000 -1.462535e+001 29 26 34
8.030928e-001 -3.817901e-002 -5.793146e+000 81 4 10
-2.990583e+000 4.132997e+000 -1.675615e+001 96 85 103
1.265860e+000 -2.537919e+000 -1.336767e+001 25 29 49
1.909544e+000 -1.040747e+000 -6.840975e+000 203 178 60
1.267796e+000 -9.727009e-002 -5.438773e+000 215 151 156
7.137023e-001 4.347215e-002 -5.850640e+000 199 45 81
2.905617e-001 1.000416e-001 -5.688908e+000 204 42 82
7.252901e-001 1.364689e-001 -5.773482e+000 111 13 20
-5.587894e-001 3.582878e-001 -4.718262e+000 211 160 172
5.016227e-001 8.596815e-001 -5.660529e+000 138 12 28
-8.844500e-001 7.167050e-001 -4.647222e+000 224 165 176
2.065051e+000 -2.290651e+000 -1.192351e+001 104 96 105
8.431382e-001 -1.873865e-002 -5.765603e+000 223 197 213
2.165027e+000 5.209306e-001 -6.306457e+000 149 93 24
1.074642e+000 5.679946e-001 -5.557238e+000 102 6 13
-7.619638e-001 8.803222e-001 -4.713192e+000 158 124 143
2.940618e+000 -3.163930e+000 -9.367368e+000 122 117 137
2.727115e+000 -3.291897e+000 -1.003567e+001 117 111 132
2.306727e+000 -3.026842e+000 -1.119677e+001 108 101 117
2.638955e+000 -2.587311e+000 -1.020048e+001 120 114 129
2.568707e+000 -2.604922e+000 -1.035643e+001 67 55 65
2.234530e+000 -1.465515e+000 -6.062232e+000 201 153 45
2.234530e+000 -1.465515e+000 -6.062232e+000 201 153 45
2.344819e+000 -2.369364e+000 -1.112593e+001 74 53 61
2.141631e+000 -8.327383e-001 -6.387045e+000 217 194 83
2.177645e+000 -7.309343e-001 -6.307233e+000 163 137 40
2.219952e+000 -5.052843e-001 -6.195550e+000 225 194 63
-8.128707e-001 3.446044e-001 -4.729897e+000 245 237 249
1.054352e+000 4.730473e-001 -5.576224e+000 201 41 74
2.936099e+000 -3.273753e+000 -9.558007e+000 116 113 136
2.502949e+000 -3.468367e+000 -1.061417e+001 51 47 63
2.916972e+000 -3.003472e+000 -9.449636e+000 115 100 121
2.783444e+000 -3.094507e+000 -9.809418e+000 32 30 45
2.645950e+000 -3.173931e+000 -1.031174e+001 115 109 126
2.372412e+000 -3.289018e+000 -1.106866e+001 113 109 127
2.599723e+000 -2.658315e+000 -1.026480e+001 67 61 76
2.419019e+000 -2.813278e+000 -1.087496e+001 116 108 123
2.450259e+000 -2.557983e+000 -1.067416e+001 104 104 123
2.533649e+000 -2.453025e+000 -1.040720e+001 111 103 121
2.082699e+000 -2.005172e+000 -1.176223e+001 107 91 101
2.474721e+000 -5.837398e-001 -5.491971e+000 208 106 133
2.474721e+000 -5.837398e-001 -5.491971e+000 208 106 133
2.466895e+000 -5.218275e-001 -5.517244e+000 206 60 87
2.498076e+000 -4.609551e-001 -5.469723e+000 208 95 123
2.240135e+000 -4.627905e-001 -6.143583e+000 167 135 16
2.511684e+000 -2.419174e-001 -5.424727e+000 215 80 98
2.511684e+000 -2.419174e-001 -5.424727e+000 215 80 98
2.261662e+000 -4.841042e-002 -6.084734e+000 167 136 16
2.447096e+000 5.373567e-002 -5.562372e+000 184 158 92
-6.038112e-001 4.034440e-001 -4.746470e+000 220 158 170
2.121071e-001 6.246911e-001 -5.486660e+000 187 157 176
-6.921960e-001 8.587444e-001 -4.724086e+000 132 93 111
-2.418140e+000 3.127441e+000 -1.185628e+001 91 86 95
1.603126e+000 3.537691e-001 -6.025196e+000 205 41 51
-2.444603e+000 1.759308e+000 -1.239740e+001 124 105 114
1.873250e+000 -1.129325e+000 -6.828904e+000 226 207 90
-7.116616e-001 2.898996e-001 -4.830440e+000 223 153 168
-7.116616e-001 2.898996e-001 -4.830440e+000 223 153 168
1.334995e+000 9.194467e-002 -5.557925e+000 132 26 23
9.594575e-001 1.275904e-001 -5.805162e+000 135 14 22
-8.746840e-001 1.660152e-001 -4.743014e+000 223 160 168
1.406854e+000 1.262733e+000 -5.360050e+000 200 144 155
-1.901457e+000 2.052550e+000 -1.170309e+001 121 100 115
-4.485637e-001 -1.710649e-001 -5.086063e+000 251 208 218
1.143495e+000 3.239024e-002 -5.527521e+000 134 59 62
8.003942e-001 -2.234577e+000 -1.235852e+001 150 127 125
-7.453737e-001 2.695984e-001 -4.723755e+000 217 152 166
3.842191e-001 6.107750e-001 -5.508345e+000 249 236 236
2.134683e+000 -1.781087e+000 -9.036539e+000 197 186 164
1.905722e+000 -1.056267e+000 -6.833553e+000 234 210 88
2.191917e+000 -6.377845e-001 -6.224236e+000 243 216 80
2.225515e+000 -5.378065e-001 -6.147091e+000 190 158 35
2.226930e+000 -5.372011e-001 -6.148548e+000 190 158 35
-4.903303e-001 3.070978e-001 -4.700581e+000 186 125 131
-5.273877e-001 3.727179e-001 -4.709480e+000 149 91 108
-8.747968e-001 7.511243e-001 -4.666336e+000 184 119 134
2.343162e+000 -2.256126e+000 -1.101905e+001 153 149 170
2.113255e+000 -8.382843e-001 -6.418851e+000 184 192 135
2.119298e+000 -8.407426e-001 -6.431717e+000 184 192 135
2.205446e+000 -5.915861e-001 -6.242432e+000 246 219 83
1.164137e+000 -3.478761e-001 -5.452605e+000 163 93 103
1.249744e+000 -1.369952e-001 -5.426161e+000 156 83 91
-5.081671e-001 2.864307e-001 -4.708941e+000 247 197 208
2.629189e+000 -3.017251e+000 -1.025449e+001 140 131 150
2.546048e+000 -2.653049e+000 -1.042041e+001 128 115 128
2.395472e+000 -2.773144e+000 -1.090340e+001 80 68 82
2.138203e+000 -9.329791e-001 -6.374995e+000 200 170 46
2.138203e+000 -9.329791e-001 -6.374995e+000 200 170 46
2.181917e+000 -8.795165e-001 -6.278214e+000 200 173 44
2.143203e+000 -8.638676e-001 -6.341161e+000 196 170 45
2.143203e+000 -8.638676e-001 -6.341161e+000 196 170 45
1.979408e+000 -2.094118e+000 -1.199351e+001 74 49 49
2.234997e+000 -5.021677e-001 -6.154987e+000 206 173 42
-8.807286e-001 -4.070700e-001 -5.344659e+000 236 189 200
2.221335e+000 -3.812431e-001 -6.198346e+000 206 171 32
-9.225644e-001 -2.456063e-001 -5.150326e+000 157 204 237
-9.305567e-001 -1.998145e-001 -5.105049e+000 119 141 190
8.998269e-001 1.086186e-001 -5.783585e+000 150 41 66
-9.014478e-001 2.693385e-001 -4.746068e+000 228 166 183
-6.714488e-001 3.441165e-001 -4.719487e+000 202 130 146
3.414963e-001 5.998219e-001 -5.466677e+000 155 106 126
3.552112e-001 6.240353e-001 -5.476313e+000 247 224 229
-1.048899e+000 7.638059e-001 -4.707897e+000 249 196 203
1.642398e+000 1.373394e+000 -5.506752e+000 189 140 135
8.957520e-001 4.764037e-001 -5.558997e+000 213 195 202
8.957520e-001 4.764037e-001 -5.558997e+000 213 195 202
2.615901e+000 -3.238057e+000 -1.035390e+001 65 50 61
1.926494e+000 -3.750256e+000 -1.238821e+001 90 91 111
1.926494e+000 -3.750256e+000 -1.238821e+001 90 91 111
-4.815271e-001 2.187614e-001 -4.694552e+000 225 173 182
4.888312e-001 1.049153e+000 -5.670763e+000 140 30 54
1.648402e+000 2.884119e+000 -7.392642e+000 141 136 153
-5.602732e-001 3.503581e-001 -4.702312e+000 240 193 203
-1.000468e-001 6.488412e-001 -5.549879e+000 233 45 74
-2.849773e+000 1.097236e+000 -1.277766e+001 117 96 105
6.063641e-001 1.643696e+000 -5.943124e+000 96 5 3
2.499585e+000 -6.374428e-001 -5.456702e+000 255 64 99
2.499585e+000 -6.374428e-001 -5.456702e+000 255 64 99
1.271704e-001 5.348186e-001 -5.473055e+000 104 39 63
8.442128e-001 6.718862e-001 -5.654096e+000 234 44 79
4.181677e-001 8.396551e-001 -5.640707e+000 180 37 58
1.193852e+000 1.356548e+000 -5.744750e+000 75 43 27
2.660259e+000 -3.377742e+000 -1.023722e+001 128 117 139
1.114570e+000 -3.239278e-001 -5.432217e+000 244 181 190
1.910746e-001 5.169557e-001 -5.478897e+000 150 99 104
5.537365e-001 9.149947e-001 -5.659110e+000 194 28 51
1.515370e+000 1.228512e+000 -5.358340e+000 185 130 132
1.356359e-001 1.195451e+000 -5.727153e+000 117 3 7
5.698473e-001 1.351953e+000 -5.954914e+000 78 0 0
-3.251287e-001 1.757550e+000 -9.649984e+000 6 6 4
1.329342e+000 2.512741e+000 -8.065650e+000 19 14 17
1.691220e+000 -4.655363e+000 -1.323534e+001 92 88 103
2.528427e+000 -3.578958e+000 -1.058752e+001 126 118 137
2.118744e+000 -3.970862e+000 -1.183145e+001 117 113 130
1.807306e+000 -4.406637e+000 -1.294040e+001 60 44 54
2.071720e+000 -3.310472e+000 -1.192505e+001 74 62 78
2.114926e+000 -9.440288e-001 -6.410329e+000 242 216 84
2.125825e+000 -8.255360e-001 -6.357411e+000 240 220 94
4.592048e-001 8.314749e-001 -5.655261e+000 230 194 214
4.592048e-001 8.314749e-001 -5.655261e+000 230 194 214
-3.218058e-001 1.699861e+000 -9.678975e+000 72 59 60
-6.161537e-001 1.764843e+000 -1.024443e+001 14 12 15
1.628304e+000 2.403832e+000 -7.517807e+000 115 95 82
1.628304e+000 2.403832e+000 -7.517807e+000 115 95 82
2.650936e+000 -3.423324e+000 -1.031219e+001 124 118 149
2.723558e+000 -3.282743e+000 -1.000341e+001 146 138 160
1.838539e+000 -4.305284e+000 -1.275298e+001 106 103 119
2.813154e+000 -3.094720e+000 -9.763984e+000 124 114 122
2.328221e+000 -3.256048e+000 -1.115530e+001 117 110 129
1.869726e+000 -3.196394e+000 -1.251565e+001 110 102 119
-8.901865e-001 5.623972e-002 -4.732082e+000 236 173 188
-5.285743e-001 4.019130e-001 -4.737241e+000 196 138 152
4.481611e-001 8.881350e-001 -5.650110e+000 235 153 173
5.780768e-001 1.034593e+000 -5.678711e+000 162 28 49
4.404664e-001 1.035517e+000 -5.664512e+000 223 201 224
2.513294e+000 -2.983108e-001 -5.404396e+000 227 157 174
2.560074e+000 -3.295182e-002 -5.345396e+000 221 180 195
2.493871e+000 -3.779101e-001 -5.417398e+000 205 169 184
2.538945e+000 -3.512945e-001 -5.367247e+000 213 36 57
2.526350e+000 -2.150927e-001 -5.378096e+000 220 180 189
2.508954e+000 -7.570974e-002 -5.402104e+000 214 39 53
2.556119e+000 1.042790e-001 -5.270591e+000 220 188 205
2.560369e+000 1.032239e-001 -5.277134e+000 220 188 205
2.513395e+000 -5.587034e-001 -5.439959e+000 214 37 60
-3.056054e+000 -4.871999e-001 -1.505463e+001 103 100 125
-7.043195e-001 6.351858e-001 -4.642554e+000 220 167 180
-9.834613e-001 6.612955e-001 -4.641832e+000 158 96 117
2.826865e+000 -3.001820e+000 -9.770925e+000 87 79 92
2.203277e+000 -7.532969e-001 -6.245205e+000 161 135 39
2.212807e+000 -5.434440e-001 -6.206034e+000 213 182 65
2.523336e+000 -1.351938e-001 -5.386860e+000 228 185 199
-3.072949e+000 -5.173125e-001 -1.522858e+001 105 101 122
-2.256891e+000 4.478978e-001 -1.239987e+001 30 23 27
-2.256891e+000 4.478978e-001 -1.239987e+001 30 23 27
-7.519621e-001 4.183000e-001 -4.693402e+000 168 140 174
4.097751e-001 1.104676e+000 -5.664432e+000 204 168 181
4.097751e-001 1.104676e+000 -5.664432e+000 204 168 181
2.925714e+000 -3.148241e+000 -9.337477e+000 81 74 89
2.193394e+000 -7.990662e-001 -6.251865e+000 159 131 35
2.193394e+000 -7.990662e-001 -6.251865e+000 159 131 35
2.504800e+000 -4.344572e-001 -5.426266e+000 226 180 196
2.515850e+000 -3.770092e-001 -5.410874e+000 229 182 199
2.524503e+000 -2.355959e-002 -5.372712e+000 229 167 175
2.524503e+000 -2.355959e-002 -5.372712e+000 229 167 175
2.563651e+000 1.369364e-001 -5.258286e+000 208 43 65
2.573352e+000 2.338832e-001 -5.228531e+000 190 71 99
-1.979716e+000 5.521428e-001 -1.196815e+001 41 29 37
-1.883765e+000 6.091303e-001 -1.181473e+001 39 29 37
-1.078832e+000 6.011302e-001 -4.668388e+000 177 111 130
3.872158e-001 8.995534e-001 -5.639018e+000 183 112 129
5.613069e-001 9.803528e-001 -5.665599e+000 134 8 22
2.818058e+000 -2.920745e+000 -9.676738e+000 41 31 41
2.153772e+000 -9.261135e-001 -6.343627e+000 205 177 65
2.523822e+000 -3.189976e-001 -5.390627e+000 235 185 202
2.517119e+000 -2.248216e-001 -5.398065e+000 230 182 190
2.458047e+000 -3.917454e+000 -4.296313e+001 153 182 225
2.540661e+000 -7.016241e-002 -5.331395e+000 190 82 110
2.540661e+000 -7.016241e-002 -5.331395e+000 190 82 110
2.571352e+000 1.112379e-001 -5.245090e+000 232 168 187
2.569921e+000 1.564997e-001 -5.221327e+000 249 156 168
2.569921e+000 1.564997e-001 -5.221327e+000 249 156 168
1.000261e+000 1.575454e+000 -5.788457e+000 190 117 131
2.516465e+000 -2.985008e-001 -5.409119e+000 227 157 174
2.492031e+000 -2.289494e-001 -5.445741e+000 217 38 44
2.555006e+000 1.994030e-002 -5.309700e+000 231 165 180
2.553735e+000 1.962533e-002 -5.310108e+000 231 165 180
2.528699e+000 -2.136317e-001 -5.380628e+000 220 180 189
2.564183e+000 -3.980535e-002 -5.269463e+000 208 46 66
2.584130e+000 8.436120e-002 -5.240538e+000 212 43 79
2.227645e+000 -5.738514e-001 -6.176933e+000 154 125 24
2.239217e+000 -2.608936e-001 -6.158915e+000 164 134 26
-2.421106e+000 3.129717e+000 -1.185769e+001 80 73 84
2.419676e+000 -2.799658e-001 -5.683574e+000 175 143 24
2.419676e+000 -2.799658e-001 -5.683574e+000 175 143 24
2.536763e+000 -1.221134e-001 -5.351023e+000 195 79 113
2.536763e+000 -1.221134e-001 -5.351023e+000 195 79 113
2.534523e+000 -4.402661e-003 -5.348230e+000 199 74 90
1.096843e+000 5.013808e-001 -5.610942e+000 174 69 91
2.637321e+000 3.390901e-001 -5.071077e+000 250 148 75
2.517547e+000 4.056755e-002 -5.358208e+000 255 60 100
2.522752e+000 1.625071e+000 -5.149188e+000 236 206 70
2.597742e+000 1.723972e-001 -5.194276e+000 255 64 106
2.574632e+000 9.788659e-002 -5.203630e+000 255 65 107
-7.309077e-001 1.034820e+000 -1.022978e+001 67 52 60
2.659976e+000 3.857245e-001 -5.025662e+000 228 109 50
2.584804e+000 2.404566e-001 -5.205807e+000 255 198 213
2.567579e+000 1.751296e-001 -5.247363e+000 248 69 109
2.110293e+000 -6.376249e-001 -6.514381e+000 225 194 66
-1.903874e+000 3.461956e+000 -1.101362e+001 18 18 18
1.721830e+000 -4.172516e-001 -7.332987e+000 204 175 51
4.110174e-001 1.316864e-002 -5.975826e+000 77 0 0
-8.034371e-001 -2.736029e-001 -5.104945e+000 18 22 29
-8.034371e-001 -2.736029e-001 -5.104945e+000 18 22 29
-8.215259e-001 4.930611e-001 -4.636947e+000 27 24 32
1.243274e+000 1.807496e-001 -8.370296e+000 14 12 13
1.929291e+000 -8.764891e-001 -6.846744e+000 214 186 51
-8.480793e-001 -3.196892e-001 -5.184742e+000 183 214 248
1.852339e+000 -6.913180e-001 -7.017857e+000 205 179 50
1.561973e+000 -1.292989e-001 -7.775445e+000 163 141 40
-1.888031e+000 3.508426e+000 -1.089361e+001 20 17 19
4.367317e-002 1.173858e+001 -1.108394e+001 99 95 115
1.578078e+000 -4.437485e-001 -7.675000e+000 192 169 53
1.900032e+000 -1.046192e+000 -6.848908e+000 209 182 55
-2.038968e+000 5.538989e+000 -1.100387e+001 0 55 99
9.460640e-001 4.314905e-001 -9.011387e+000 131 125 145
2.271619e+000 -7.161378e-002 -6.092250e+000 189 156 47
2.271619e+000 -7.161378e-002 -6.092250e+000 189 156 47
-8.486363e-001 -2.312868e-001 -5.071036e+000 21 33 77
-7.442049e-001 -2.101055e-001 -5.040730e+000 171 224 254
-8.387645e-001 4.346351e-001 -4.664671e+000 250 255 255
-8.387645e-001 4.346351e-001 -4.664671e+000 250 255 255
-7.526737e-001 1.020835e+000 -1.022490e+001 35 32 34
-2.900738e+000 3.138277e+000 -1.208638e+001 62 62 69
8.965328e-001 3.030333e-001 -9.163314e+000 152 141 157
-2.744900e+000 3.188341e+000 -1.191408e+001 76 70 81
-2.744900e+000 3.188341e+000 -1.191408e+001 76 70 81
1.195096e+000 -1.121735e-001 -8.560655e+000 19 16 22
9.182088e-001 4.648765e-001 -9.091577e+000 137 130 141
8.809492e-001 6.020710e-001 -9.150011e+000 131 122 140
8.809492e-001 6.020710e-001 -9.150011e+000 131 122 140
9.050423e-001 5.721854e-001 -9.085757e+000 129 121 134
9.765536e-001 5.979169e-001 -8.944096e+000 106 98 116
9.764534e-001 5.967713e-001 -8.941910e+000 106 98 116
1.678435e+000 -4.563706e-001 -7.489247e+000 196 174 54
1.751067e+000 -6.344741e-001 -7.275523e+000 151 121 101
1.780219e+000 -5.043581e-001 -7.237002e+000 97 65 42
1.696069e+000 -3.165364e-001 -7.444528e+000 196 174 50
2.156515e+000 -8.144065e-001 -6.338912e+000 165 135 20
2.156515e+000 -8.144065e-001 -6.338912e+000 165 135 20
2.177145e+000 -6.154844e-001 -6.312427e+000 232 197 67
-5.880015e-001 -1.955244e-001 -4.990158e+000 131 82 103
9.430249e-001 2.249726e-001 -9.080723e+000 157 148 161
9.543902e-001 3.357584e-001 -9.033859e+000 143 134 153
1.226217e+000 -9.450593e-002 -8.487469e+000 154 152 169
9.541379e-001 3.665504e-001 -9.024026e+000 139 132 148
-2.339211e+000 3.239302e+000 -1.158341e+001 77 71 82
-2.339211e+000 3.239302e+000 -1.158341e+001 77 71 82
9.947815e-001 4.877232e-001 -8.925906e+000 54 50 67
9.947815e-001 4.877232e-001 -8.925906e+000 54 50 67
1.471214e+000 -3.505793e-001 -7.927700e+000 32 17 0
1.064760e+000 5.339880e-001 -8.779486e+000 36 28 38
2.116117e+000 -8.433162e-001 -6.430983e+000 163 172 126
2.192745e+000 -6.108509e-001 -6.272865e+000 184 153 41
-9.836190e-001 -3.818875e-001 -5.319816e+000 221 170 181
-8.085960e-001 -3.393108e-001 -5.204703e+000 242 236 249
-3.661242e-002 2.552464e-001 -5.590264e+000 200 164 176
-3.855482e-002 2.556638e-001 -5.591468e+000 200 164 176
-4.190274e-002 1.099183e+001 -1.114891e+001 9 9 9
-8.489800e-001 4.527813e-001 -4.724136e+000 68 96 145
-7.852198e-001 4.624801e-001 -4.574318e+000 216 206 238
3.494962e+000 5.672596e+000 -7.074208e+000 114 102 120
2.022817e+000 9.780793e+000 -9.100350e+000 65 37 54
3.108273e+000 7.843003e+000 -8.058094e+000 105 98 117
2.983972e+000 8.805434e+000 -8.245284e+000 47 36 36
1.891750e+000 -1.197438e+000 -6.851925e+000 61 40 0
1.940183e+000 -1.009401e+000 -6.793034e+000 56 25 0
1.558000e+000 3.680808e-003 -7.766577e+000 37 26 1
-6.931138e-001 -2.311781e-001 -5.081574e+000 164 184 222
3.299440e+000 5.748567e+000 -7.675276e+000 112 99 115
3.377359e+000 7.241609e+000 -7.273208e+000 48 36 43
2.629794e+000 1.390472e+000 -5.092990e+000 215 191 131
-2.037681e+000 5.844720e+000 -1.036845e+001 143 134 155
-2.037681e+000 5.844720e+000 -1.036845e+001 143 134 155
2.551108e+000 1.674260e+000 -5.069755e+000 142 117 14
1.620443e+000 -4.264366e-001 -7.574677e+000 146 105 63
-8.105638e-001 5.881768e+000 -1.048345e+001 100 93 109
-1.850303e+000 5.878052e+000 -1.018585e+001 14 83 115
-7.146560e-001 -2.292188e-001 -5.058093e+000 186 219 250
2.543096e+000 1.902209e-001 -5.302069e+000 243 49 76
2.557707e+000 3.096476e-001 -5.273973e+000 239 52 74
2.625169e+000 4.731848e-001 -5.176885e+000 198 96 122
1.010334e+000 4.824171e-001 -8.806840e+000 101 95 111
1.531307e+000 -3.086359e-001 -7.803555e+000 182 161 43
1.521218e+000 -1.780401e-001 -7.843076e+000 123 108 54
-7.025154e-001 -1.890377e-001 -4.969711e+000 233 173 180
-2.761852e-002 8.385835e+000 -1.160316e+001 89 73 85
-2.761852e-002 8.385835e+000 -1.160316e+001 89 73 85
2.544176e+000 -2.047928e-001 -5.309723e+000 239 48 75
-3.208146e-002 8.665303e+000 -1.152512e+001 114 71 90
-9.636577e-001 8.580037e+000 -1.115847e+001 106 58 71
2.585545e+000 -2.017960e-002 -5.189224e+000 226 104 34
2.596832e+000 3.810699e-001 -5.189496e+000 239 198 213
2.673116e+000 4.222282e-001 -4.979860e+000 237 47 65
1.210429e+000 -2.689384e-002 -8.515396e+000 19 14 18
1.286800e+000 2.890522e-001 -8.334828e+000 10 10 8
-2.113808e+000 5.709251e+000 -1.050040e+001 28 83 109
-2.041137e+000 5.795322e+000 -1.030881e+001 146 135 156
-2.254001e+000 5.811555e+000 -1.020763e+001 6 10 11
-2.159728e+000 5.839825e+000 -1.017859e+001 24 87 121
-1.100286e+000 5.888638e+000 -1.037013e+001 99 93 111
2.559841e+000 1.069173e-001 -5.281111e+000 235 203 216
-6.693611e-002 1.036142e+001 -1.162383e+001 7 8 7
2.696637e+000 5.390168e-001 -5.042665e+000 227 120 55
1.244722e+000 2.929657e-001 -8.436257e+000 11 9 11
-2.239449e+000 5.748291e+000 -1.042651e+001 20 77 100
-2.212834e+000 5.786395e+000 -1.029430e+001 29 87 115
-1.785503e+000 5.833572e+000 -1.027465e+001 7 22 29
-1.978952e+000 5.826730e+000 -1.021618e+001 0 33 53
-1.491871e+000 5.868492e+000 -1.031844e+001 123 110 133
-6.760561e-001 -2.134402e-001 -5.064762e+000 238 220 239
-6.407411e-001 -2.230091e-001 -5.041994e+000 200 139 153
2.522091e+000 -1.353286e-001 -5.387227e+000 240 208 219
-9.126678e-002 8.443583e+000 -1.153079e+001 37 43 74
-1.036399e+000 3.003869e-001 -4.751178e+000 248 186 198
4.217944e+000 1.915867e+000 -5.215126e+000 151 136 157
4.276768e+000 1.984895e+000 -5.061123e+000 155 144 167
9.765981e-001 6.672081e-001 -8.924081e+000 98 84 98
1.657278e+000 -4.313542e-001 -7.519556e+000 135 99 34
1.652128e+000 -3.801539e-001 -7.545358e+000 177 139 59
2.147277e+000 -8.696627e-001 -6.350416e+000 179 148 30
2.147277e+000 -8.696627e-001 -6.350416e+000 179 148 30
9.615979e-001 -5.477813e-001 -5.615074e+000 179 101 102
-1.277233e+000 5.871727e+000 -1.042951e+001 6 14 52
2.514537e+000 -3.775439e-001 -5.409650e+000 251 197 214
2.538639e+000 -1.542404e-001 -5.335814e+000 253 187 208
2.561218e+000 2.098357e-001 -5.250315e+000 237 204 216
-1.064095e+000 3.127464e-001 -4.766793e+000 214 142 155
1.215880e+000 1.072585e-001 -8.476907e+000 19 14 21
1.215880e+000 1.072585e-001 -8.476907e+000 19 14 21
1.080286e+000 4.135606e-001 -8.771218e+000 97 94 107
1.680351e+000 -5.115090e-001 -7.454186e+000 162 133 28
-2.878592e+000 5.518632e+000 -1.113082e+001 34 34 34
-2.878592e+000 5.518632e+000 -1.113082e+001 34 34 34
-3.720912e-001 8.497781e+000 -1.137174e+001 121 97 118
1.902799e+000 -1.063719e+000 -6.921433e+000 32 12 0
-4.748630e+000 7.525722e+000 -9.840071e+000 6 6 6
-6.784256e-001 -3.748387e-001 -5.431133e+000 167 122 138
-4.539564e+000 7.172821e+000 -9.995249e+000 120 94 95
-3.870027e+000 1.053805e+001 -8.895426e+000 86 66 67
-3.611253e+000 1.199482e+001 -8.760355e+000 75 71 88
2.114071e+000 -5.936766e-001 -6.387393e+000 203 173 53
-2.597481e-001 8.487664e-002 -5.592589e+000 180 165 182
-4.967668e+000 9.435383e+000 -9.461122e+000 63 61 75
-4.805504e+000 1.073546e+001 -9.220430e+000 66 63 74
-3.661369e+000 1.139110e+001 -9.628371e+000 93 85 109
-4.125968e+000 1.067634e+001 -8.891748e+000 6 6 7
-6.235095e+000 9.555106e+000 -1.254643e+001 5 7 4
1.438010e+000 -3.316950e-001 -6.917961e+000 118 78 86
-4.658202e+000 7.871185e+000 -9.656550e+000 56 59 75
-4.658202e+000 7.871185e+000 -9.656550e+000 56 59 75
8.464776e-002 2.323650e-001 -5.794644e+000 193 30 47
-4.523593e+000 8.536908e+000 -9.338913e+000 44 46 61
-3.516141e+000 1.175128e+001 -9.724577e+000 31 26 31
-3.411756e+000 5.560316e+000 -1.102016e+001 44 44 54
1.954544e+000 -8.606942e-001 -6.729457e+000 57 34 9
-9.254330e-001 -4.025452e-001 -5.362379e+000 117 76 99
-5.029118e+000 7.557851e+000 -1.000107e+001 5 5 7
-7.099703e-001 -3.631922e-001 -5.248776e+000 220 160 173
2.062099e+000 -5.050934e-001 -6.520042e+000 86 51 4
-3.906408e+000 8.305449e+000 -1.025666e+001 77 73 97
-4.687826e+000 8.041953e+000 -9.397780e+000 6 2 6
-4.187372e+000 8.270777e+000 -9.616867e+000 43 32 34
-3.729438e-001 -1.523548e-001 -5.151911e+000 146 95 110
-5.597018e-001 -1.921985e-001 -4.948214e+000 207 159 171
-3.388169e+000 1.158996e+001 -1.002112e+001 13 13 17
-4.663161e+000 1.229225e+001 -8.924401e+000 59 53 65
2.523134e+000 -3.768774e-001 -5.366544e+000 208 42 65
-4.109507e+000 1.166199e+001 -8.508534e+000 27 29 45
2.576601e+000 -1.582540e-001 -5.239787e+000 204 95 45
8.499239e-001 1.031230e+000 -9.109810e+000 46 19 26
2.079560e+000 -5.411722e-001 -6.411405e+000 92 54 5
-7.252610e-001 -2.141219e-001 -5.081405e+000 150 201 244
-4.602597e+000 8.124964e+000 -9.480445e+000 51 53 68
-4.113117e+000 8.391822e+000 -9.488538e+000 36 26 30
-4.113117e+000 8.391822e+000 -9.488538e+000 36 26 30
1.403814e-002 4.630153e-001 -5.477134e+000 162 131 145
-4.885297e+000 1.015361e+001 -9.349375e+000 10 10 11
2.175824e+000 4.993505e-001 -6.310042e+000 139 92 28
-3.973742e+000 1.011813e+001 -9.271764e+000 27 23 20
-3.905384e+000 1.022995e+001 -9.181482e+000 28 23 24
-3.905384e+000 1.022995e+001 -9.181482e+000 28 23 24
2.494869e+000 -6.429600e-001 -5.500051e+000 212 43 64
-2.989192e+000 1.202911e+001 -9.846866e+000 30 11 15
2.484574e+000 1.707546e+000 -5.253955e+000 106 87 49
8.311376e-001 9.338852e-001 -9.133517e+000 54 12 22
1.235503e+000 1.942105e-001 -8.460733e+000 12 10 13
1.884010e+000 -1.157609e+000 -6.865898e+000 192 171 54
1.666819e+000 -1.314879e-001 -7.506716e+000 27 22 6
2.122061e+000 -9.888322e-001 -6.407678e+000 153 123 26
2.122061e+000 -9.888322e-001 -6.407678e+000 153 123 26
-4.263786e+000 7.345686e+000 -9.688494e+000 47 35 44
-5.686066e-001 -3.197311e-001 -5.232374e+000 147 91 106
2.165758e+000 -5.107459e-001 -6.308378e+000 82 56 15
-5.187853e-001 -2.130300e-001 -5.116269e+000 145 87 106
-3.545361e-002 4.721978e-001 -5.486785e+000 180 147 159
-4.361792e-001 3.728457e-003 -4.758194e+000 137 86 105
1.499209e+000 9.257465e-001 -5.330789e+000 192 139 153
9.698682e-001 5.291643e-001 -8.987823e+000 101 82 94
1.894326e+000 -1.192459e+000 -6.857338e+000 54 29 0
-6.156971e+000 9.071094e+000 -1.210313e+001 35 31 33
1.803637e+000 -4.809240e-001 -7.176870e+000 139 119 48
-9.891582e-001 -3.820494e-001 -5.353143e+000 145 100 121
-8.617160e-001 -4.215646e-001 -5.326949e+000 175 134 145
-1.173925e+000 -2.517818e-001 -5.182613e+000 180 121 143
-6.877744e-001 -3.884618e-001 -5.311054e+000 184 137 149
2.190708e+000 -6.151359e-001 -6.269152e+000 166 136 23
-6.448172e-001 -2.305988e-001 -5.097902e+000 205 146 160
1.002150e+000 -5.611868e-001 -5.535529e+000 137 85 107
-4.984111e-001 -1.928268e-001 -4.967752e+000 197 143 157
-8.794648e-001 -5.277219e-002 -4.820424e+000 146 87 109
-4.045560e+000 1.180194e+001 -8.360875e+000 50 52 58
-4.045560e+000 1.180194e+001 -8.360875e+000 50 52 58
2.566756e+000 6.516752e-002 -5.225987e+000 195 54 70
3.857722e-002 -3.207484e-002 -2.750641e-001 0 255 0
3.855603e-002 -3.201521e-002 -3.250641e-001 255 255 0
-5.751718e-001 6.196474e-001 4.761743e-002 255 0 0
-5.723459e-001 6.174212e-001 -2.252983e-003 255 255 0
-1.154534e+000 1.417274e-001 -6.033339e-001 0 255 0
-1.143027e+000 1.403845e-001 -6.519733e-001 255 255 0
-1.183957e+000 2.075101e+000 -4.100579e-001 255 0 0
-1.171262e+000 2.065293e+000 -4.574146e-001 255 255 0
-2.212354e+000 -3.465929e+000 -2.247311e+000 0 255 0
-2.193585e+000 -3.433111e+000 -2.280032e+000 255 255 0
-2.168640e-001 -4.648341e+000 -1.899949e+000 255 0 0
-2.145475e-001 -4.610201e+000 -1.932198e+000 255 255 0
-7.450969e-001 -5.011894e+000 -3.764924e+000 0 255 0
-7.374853e-001 -4.966180e+000 -3.783692e+000 255 255 0
