ply
format ascii 1.0
element face 0
property list uchar int vertex_indices
element vertex 503
property float x
property float y
property float z
property uchar diffuse_red
property uchar diffuse_green
property uchar diffuse_blue
end_header
1.922209e+000 -1.151583e+000 -6.891370e+000 203 182 70
2.198814e+000 -8.869383e-001 -6.334757e+000 221 195 83
2.198814e+000 -8.869383e-001 -6.334757e+000 221 195 83
2.218950e+000 -8.772743e-001 -6.297311e+000 177 153 51
2.219929e+000 -7.757386e-001 -6.314814e+000 214 189 76
2.228121e+000 -6.990777e-001 -6.283705e+000 215 190 73
2.207352e+000 -8.146669e-001 -6.317388e+000 215 191 85
2.529707e+000 -4.893804e-001 -5.475758e+000 226 182 185
2.180557e+000 -9.823520e-001 -6.377876e+000 212 189 70
1.926475e+000 -1.112944e+000 -6.900185e+000 41 28 0
1.926475e+000 -1.112944e+000 -6.900185e+000 41 28 0
2.540922e+000 -3.760469e-001 -5.469223e+000 234 192 195
2.533464e+000 -4.260090e-001 -5.486406e+000 239 180 181
2.124012e+000 -6.458018e-001 -6.475997e+000 218 186 68
-8.525140e-001 4.834550e-001 -4.655372e+000 21 27 43
-8.510063e-001 4.838801e-001 -4.655045e+000 21 27 43
-8.525140e-001 4.834550e-001 -4.655372e+000 21 27 43
-8.172904e-001 -2.601354e-001 -5.134872e+000 23 24 28
8.978138e-001 3.402035e-002 -5.761196e+000 210 178 197
8.998153e-002 3.255282e-001 -5.616077e+000 152 22 32
-8.967761e-001 5.949172e-001 -4.678275e+000 192 205 242
1.074451e+000 -3.337748e-002 -5.611479e+000 180 117 131
1.353663e+000 1.835083e-001 -5.663742e+000 188 119 130
1.030527e+000 5.424046e-001 -5.612899e+000 213 193 208
1.030527e+000 5.424046e-001 -5.612899e+000 213 193 208
3.981274e-001 4.634985e-001 -5.492637e+000 72 2 3
-8.355548e-001 3.577641e-001 -4.709973e+000 187 201 240
8.565635e-001 5.347494e-001 -5.614824e+000 95 0 2
4.901853e-001 9.654392e-001 -5.656210e+000 163 18 29
2.349278e+000 -1.140644e+000 -5.976560e+000 202 197 106
1.025826e+000 2.609353e-002 -5.688722e+000 72 5 8
3.964793e-002 4.178559e-001 -5.597716e+000 225 56 94
3.964793e-002 4.178559e-001 -5.597716e+000 225 56 94
-5.423015e-001 4.107367e-001 -4.729651e+000 108 54 70
1.934285e-001 6.199725e-001 -5.507344e+000 217 202 221
-9.015961e-001 4.794372e-001 -4.635845e+000 18 20 30
4.334780e-001 1.054133e+000 -5.660303e+000 171 150 172
2.535704e+000 -4.902700e-001 -5.485758e+000 226 182 185
9.342629e-001 -9.260317e-002 -5.697143e+000 51 9 18
8.502436e-001 1.076235e-001 -5.805192e+000 139 29 46
-4.568596e-001 2.800228e-001 -4.678241e+000 157 99 113
1.076307e+000 6.324135e-001 -5.631618e+000 44 9 7
1.543189e-001 5.478652e-001 -5.492735e+000 82 11 26
-5.575036e-001 4.534713e-001 -4.720302e+000 235 181 195
-9.407053e-001 4.324162e-001 -4.680829e+000 183 230 255
-8.733590e-001 5.504383e-001 -4.548704e+000 179 225 255
-8.975697e-001 6.120994e-001 -4.659310e+000 243 231 243
-8.038212e-001 7.166465e-001 -4.610313e+000 225 165 177
9.853883e-001 -4.318785e-002 -5.714772e+000 66 13 22
1.265724e+000 7.111609e-002 -5.610859e+000 95 35 39
1.143218e+000 7.790647e-002 -5.664659e+000 172 101 113
6.837985e-001 1.732564e-001 -5.755188e+000 115 4 13
9.358002e-001 5.778089e-001 -5.601035e+000 104 11 16
-5.592426e-002 5.801232e-001 -5.502842e+000 108 9 22
-8.631549e-001 4.509787e-001 -4.669685e+000 255 254 254
5.762377e-001 9.256835e-001 -5.663777e+000 153 14 28
-9.050617e-001 7.267367e-001 -4.626596e+000 227 167 179
-1.013483e+000 7.256306e-001 -4.639443e+000 133 74 96
4.649878e-001 1.100234e+000 -5.653347e+000 166 22 33
1.605219e+000 1.248205e+000 -5.392291e+000 69 31 28
1.605219e+000 1.248205e+000 -5.392291e+000 69 31 28
1.793198e+000 -3.419277e+000 -1.279098e+001 97 90 106
-1.214820e+000 -2.835893e+000 -1.304542e+001 72 44 55
2.206503e+000 -8.551851e-001 -6.333640e+000 214 191 78
-8.193249e-001 -1.988494e-001 -5.113234e+000 251 253 255
9.454672e-001 -5.487117e-002 -5.753950e+000 173 134 153
2.142213e+000 5.770281e-001 -6.400947e+000 110 64 25
-8.430069e-001 3.858836e-001 -4.671511e+000 165 217 254
-9.685086e-001 4.049443e-001 -4.688196e+000 168 156 197
-6.017707e-001 5.856898e-001 -4.647204e+000 170 104 126
-8.541339e-001 6.986459e-001 -4.617167e+000 178 107 123
-8.971782e-001 6.951213e-001 -4.615358e+000 174 107 127
-8.979404e-001 6.956038e-001 -4.619810e+000 174 107 127
1.722476e+000 1.372447e+000 -5.540646e+000 69 30 30
1.005433e+000 1.572788e+000 -5.817397e+000 140 24 34
2.565880e+000 -2.929973e+000 -1.044873e+001 103 99 121
2.315468e+000 -3.040079e+000 -1.124340e+001 108 101 117
2.431662e+000 -2.583035e+000 -1.081648e+001 64 53 67
2.346864e+000 -2.381111e+000 -1.116722e+001 74 53 61
2.298789e+000 -2.387420e+000 -1.122545e+001 124 120 134
2.298789e+000 -2.387420e+000 -1.122545e+001 124 120 134
2.515031e+000 -5.934283e-001 -5.542365e+000 240 184 195
2.531833e+000 -5.585180e-001 -5.479495e+000 242 193 212
2.176280e+000 -6.948117e-001 -6.404396e+000 164 169 117
2.540115e+000 -4.757785e-001 -5.457578e+000 234 173 188
2.223013e+000 -6.042292e-001 -6.286134e+000 177 147 41
9.921656e-001 -4.603156e-003 -5.715121e+000 171 124 141
-4.836524e-001 -5.403604e-002 -4.825155e+000 226 178 187
-4.749823e-001 -1.049976e-002 -4.791198e+000 219 171 182
-4.348891e-001 6.718321e-002 -4.739802e+000 157 101 112
-4.348891e-001 6.718321e-002 -4.739802e+000 157 101 112
-8.777370e-001 5.998764e-002 -4.704764e+000 215 151 168
-4.420903e-001 2.254340e-001 -4.691602e+000 157 99 112
-8.687855e-001 2.101034e-001 -4.739343e+000 245 182 191
1.416898e-001 5.760198e-001 -5.471640e+000 233 218 230
1.698844e-001 5.952881e-001 -5.471826e+000 229 219 231
-8.494564e-001 6.112820e-001 -4.654334e+000 241 217 230
4.078046e-001 9.128794e-001 -5.640930e+000 203 132 150
-9.348628e-001 7.103734e-001 -4.620148e+000 232 172 179
4.651166e-001 1.024882e+000 -5.653136e+000 152 22 54
2.771112e+000 -3.312925e+000 -9.941668e+000 111 103 121
2.461696e+000 -3.627858e+000 -1.084913e+001 100 95 114
2.557808e+000 -3.472895e+000 -1.061101e+001 115 112 130
2.575659e+000 -3.138712e+000 -1.052279e+001 117 106 126
2.463116e+000 -2.710972e+000 -1.088671e+001 73 58 66
2.124720e+000 -2.228167e+000 -1.164997e+001 107 92 111
1.929559e+000 -2.394468e+000 -1.233158e+001 97 86 99
2.085237e+000 -2.021914e+000 -1.182311e+001 107 91 101
2.539301e+000 -6.926890e-001 -5.469231e+000 247 142 75
2.210725e+000 -8.155275e-001 -6.324318e+000 215 191 85
2.541018e+000 -5.164670e-001 -5.464395e+000 249 179 194
2.558026e+000 -3.315823e-001 -5.401103e+000 215 78 123
9.347847e-001 8.830248e-003 -5.717294e+000 223 194 208
1.090262e-001 5.610895e-001 -5.470102e+000 239 225 235
-7.406615e-002 5.505120e-001 -5.469846e+000 209 176 193
1.587826e+000 1.032864e+000 -5.303843e+000 159 96 109
5.868167e-001 9.629808e-001 -5.664669e+000 212 136 155
1.008747e+000 -2.992344e-001 -5.556942e+000 215 148 157
5.535675e-003 4.942214e-001 -5.557468e+000 243 238 244
-2.338120e-001 5.584088e-001 -5.292726e+000 34 19 22
1.993214e+000 8.001226e-001 -6.366788e+000 192 132 142
-4.319297e-002 2.778950e-001 -5.645791e+000 235 234 242
3.004615e-002 1.464634e+000 -5.977509e+000 161 15 26
-1.275209e+000 -2.972678e+000 -1.294159e+001 58 58 69
-2.454783e-002 1.657557e-001 -5.807418e+000 198 32 51
1.437973e+000 3.039971e-001 -5.795473e+000 67 9 9
-3.035206e+000 3.204268e+000 -1.240916e+001 23 21 26
3.615357e-001 -3.495903e+000 -1.360113e+001 9 9 9
7.994744e-001 5.673490e-002 -5.800108e+000 238 230 239
-1.109363e-001 2.050861e-001 -5.709246e+000 230 212 229
2.351884e+000 -1.142327e+000 -5.982977e+000 202 197 106
1.199100e+000 1.004311e-001 -5.655293e+000 189 123 137
3.095934e-001 4.856711e-001 -5.501344e+000 230 208 219
-1.744050e-002 7.350121e-001 -5.562918e+000 91 1 7
1.578689e+000 1.394954e+000 -5.497957e+000 169 119 130
8.529440e-001 -5.004978e+000 -1.505218e+001 42 42 51
2.419903e+000 -3.659475e+000 -1.103489e+001 37 33 48
2.419903e+000 -3.659475e+000 -1.103489e+001 37 33 48
3.018457e+000 -2.922636e+000 -9.230133e+000 60 49 63
2.689086e+000 -2.753203e+000 -1.009074e+001 64 55 67
2.441314e+000 -2.049277e+000 -8.354135e+000 188 174 148
5.016208e-001 -3.287443e+000 -1.339539e+001 104 81 65
2.550773e+000 -3.683747e-001 -5.440425e+000 224 181 194
2.550773e+000 -3.683747e-001 -5.440425e+000 224 181 194
2.247334e+000 -3.255245e-001 -6.288062e+000 220 184 47
6.233730e-001 1.661883e+000 -5.953667e+000 67 1 0
2.700264e+000 -3.207951e+000 -1.014192e+001 53 42 52
2.693104e+000 -3.198420e+000 -1.011463e+001 53 42 52
2.327897e+000 -1.947818e+000 -8.645684e+000 178 171 140
1.548654e+000 -2.607589e+000 -1.270128e+001 110 84 65
1.418402e+000 -2.561327e+000 -1.272764e+001 18 29 45
2.083771e+000 -2.180321e+000 -1.181897e+001 54 41 43
2.517246e+000 -5.982911e-001 -5.484373e+000 225 190 208
2.089120e+000 3.197841e-001 -6.498987e+000 147 111 50
5.226652e-001 8.274726e-001 -5.603957e+000 148 19 29
1.723839e+000 1.371920e+000 -5.544280e+000 69 30 30
2.355998e+000 -3.914570e+000 -1.113470e+001 84 79 97
2.563352e+000 -3.322957e+000 -1.061434e+001 98 89 106
2.879090e+000 -2.869709e+000 -9.527913e+000 56 43 54
1.774761e+000 -3.718124e+000 -1.278400e+001 10 10 12
1.783598e+000 -3.736818e+000 -1.284404e+001 10 10 12
2.733192e+000 -2.869041e+000 -1.000580e+001 59 47 61
2.733192e+000 -2.869041e+000 -1.000580e+001 59 47 61
2.539506e+000 -2.987472e+000 -1.061075e+001 59 52 64
2.539506e+000 -2.987472e+000 -1.061075e+001 59 52 64
1.676692e+000 -2.796973e+000 -1.294426e+001 47 38 45
2.001070e+000 -2.342518e+000 -1.199955e+001 52 42 42
1.927658e+000 -1.155348e+000 -6.910367e+000 203 182 70
2.520469e+000 -6.009220e-001 -5.491389e+000 227 196 213
2.547298e+000 -4.238129e-001 -5.436091e+000 236 188 201
2.553086e+000 -3.640405e-001 -5.411256e+000 245 191 207
2.156121e+000 -2.848438e-001 -6.266565e+000 114 69 10
-5.050605e-001 -1.073485e-001 -4.861401e+000 229 178 190
-4.088640e-001 1.597199e-001 -4.724955e+000 225 164 172
5.159040e-001 2.023836e-001 -5.764167e+000 125 4 14
2.125877e+000 2.668836e-001 -6.516301e+000 84 49 7
-3.499119e-001 3.927469e-001 -4.725023e+000 207 155 168
2.190110e+000 6.011982e-001 -6.391073e+000 176 139 90
4.037305e-001 5.307159e-001 -5.545176e+000 156 27 44
-5.746533e-001 5.365965e-001 -4.663866e+000 189 126 143
-5.746533e-001 5.365965e-001 -4.663866e+000 189 126 143
3.280300e-001 6.598759e-001 -5.415594e+000 219 197 209
4.742611e-001 6.777936e-001 -5.474867e+000 246 224 228
4.742611e-001 6.777936e-001 -5.474867e+000 246 224 228
-6.008955e-001 5.862253e-001 -4.645844e+000 170 104 126
5.547242e-001 7.947847e-001 -5.641670e+000 205 172 197
-6.858433e-001 6.466146e-001 -4.622920e+000 233 178 193
-7.262957e-001 6.798092e-001 -4.624185e+000 226 172 182
-9.907557e-001 6.983043e-001 -4.630873e+000 229 167 180
1.243566e+000 1.080596e+000 -5.277688e+000 184 132 143
2.838424e+000 -3.138948e+000 -9.730636e+000 52 45 57
2.528633e+000 -3.430192e+000 -1.071090e+001 101 97 119
2.463801e+000 -3.419629e+000 -1.081798e+001 105 97 118
2.213703e+000 -3.586418e+000 -1.151675e+001 53 51 65
2.196537e+000 -3.522804e+000 -1.153508e+001 85 78 96
2.141342e+000 -3.472415e+000 -1.170720e+001 39 35 49
2.813208e+000 -2.768675e+000 -9.797002e+000 57 41 47
2.813208e+000 -2.768675e+000 -9.797002e+000 57 41 47
2.427519e+000 -2.895965e+000 -1.096071e+001 57 46 54
1.665804e+000 -3.480985e+000 -1.317950e+001 88 85 103
2.470955e+000 -2.142524e+000 -8.276527e+000 187 178 144
2.577316e+000 -2.610412e+000 -1.038161e+001 67 55 65
1.726458e+000 -3.101649e+000 -1.297231e+001 54 48 60
2.328680e+000 -2.022242e+000 -8.593495e+000 113 98 80
2.131792e+000 -2.413632e+000 -1.172745e+001 63 47 57
2.346830e+000 -2.266230e+000 -1.106170e+001 121 118 134
2.169162e+000 -8.677877e-001 -6.417364e+000 216 192 86
2.525513e+000 -6.275169e-001 -5.569553e+000 221 70 104
2.523033e+000 -5.447385e-001 -5.533412e+000 239 180 193
2.076160e+000 -5.576769e-001 -6.605853e+000 228 191 78
2.264426e+000 -4.709569e-001 -6.217397e+000 229 196 57
2.264426e+000 -4.709569e-001 -6.217397e+000 229 196 57
8.688693e-001 -3.771932e-001 -5.574776e+000 169 46 60
2.213650e+000 -3.596911e-001 -6.272216e+000 97 62 2
2.558246e+000 -3.069122e-001 -5.391937e+000 232 191 210
2.187841e+000 -3.214472e-001 -6.276973e+000 120 75 14
2.558671e+000 -2.529470e-001 -5.430614e+000 240 192 195
2.147008e+000 2.813811e-001 -6.469151e+000 176 139 48
-3.296521e-001 4.112802e-001 -4.765736e+000 171 123 144
-3.170164e-001 4.392281e-001 -4.789862e+000 220 191 199
-9.857518e-001 4.469874e-001 -4.683486e+000 173 160 195
1.826115e-001 5.737369e-001 -5.474266e+000 73 21 45
4.096784e-001 6.197587e-001 -5.487630e+000 243 214 219
1.919142e-001 6.666300e-001 -5.513889e+000 71 6 13
-5.741288e-001 5.806695e-001 -4.669500e+000 237 174 184
-8.576849e-001 6.726490e-001 -4.612014e+000 228 165 173
-9.143866e-001 7.574733e-001 -4.634339e+000 157 100 122
-3.934595e+000 3.997825e+000 -1.206601e+001 146 93 86
2.229103e+000 -3.949808e+000 -1.147067e+001 51 45 59
2.269161e+000 -3.892939e+000 -1.135094e+001 89 87 105
1.004610e+000 -5.116782e+000 -1.492926e+001 48 48 57
2.260569e+000 -3.781499e+000 -1.132444e+001 88 85 102
2.714330e+000 -3.361354e+000 -1.016425e+001 59 54 71
3.003803e+000 -3.012168e+000 -9.241479e+000 56 47 62
2.412726e+000 -3.498696e+000 -1.102772e+001 99 95 118
2.352174e+000 -3.532182e+000 -1.123596e+001 56 46 58
2.855664e+000 -3.001205e+000 -9.728350e+000 117 110 126
2.389662e+000 -3.300105e+000 -1.096804e+001 53 46 61
2.546074e+000 -3.167893e+000 -1.059291e+001 68 59 74
2.180466e+000 -3.433454e+000 -1.164768e+001 88 81 97
1.651622e+000 -3.874452e+000 -1.317425e+001 36 26 32
2.527564e+000 -3.086207e+000 -1.063154e+001 100 93 109
2.001844e+000 -3.516891e+000 -1.217988e+001 52 47 68
2.001844e+000 -3.516891e+000 -1.217988e+001 52 47 68
2.681104e+000 -2.827506e+000 -1.013151e+001 47 34 47
2.121466e+000 -3.297978e+000 -1.187723e+001 90 78 86
1.855844e+000 -3.482537e+000 -1.258083e+001 44 36 49
2.469265e+000 -2.912171e+000 -1.072331e+001 57 46 60
2.002681e+000 -3.172253e+000 -1.214685e+001 57 49 60
2.000256e+000 -3.089307e+000 -1.210135e+001 89 85 99
2.000256e+000 -3.089307e+000 -1.210135e+001 89 85 99
2.520681e+000 -2.558644e+000 -1.060613e+001 106 99 115
2.520681e+000 -2.558644e+000 -1.060613e+001 106 99 115
2.433966e+000 -2.585719e+000 -1.082646e+001 64 53 67
2.433966e+000 -2.585719e+000 -1.082646e+001 64 53 67
1.283407e+000 -3.063701e+000 -1.430704e+001 74 67 78
2.170138e+000 -2.232453e+000 -1.160664e+001 68 55 68
2.353129e+000 -1.139764e+000 -5.985363e+000 197 196 106
2.354835e+000 -2.056837e+000 -1.108085e+001 71 60 79
2.211806e+000 -2.041303e+000 -1.133623e+001 91 79 87
2.211806e+000 -2.041303e+000 -1.133623e+001 91 79 87
2.043788e+000 -2.058496e+000 -1.189448e+001 62 50 55
2.529988e+000 -5.040557e-001 -5.515889e+000 233 187 193
2.278420e+000 -2.555442e-001 -6.193553e+000 175 144 33
2.564855e+000 -2.124826e-001 -5.418988e+000 237 192 205
2.199691e+000 5.260315e-001 -6.347406e+000 139 84 16
-7.376860e-001 4.284304e-001 -4.670311e+000 182 160 191
-9.383481e-001 4.723909e-001 -4.653037e+000 147 198 228
-8.094785e-001 6.004046e-001 -4.644103e+000 235 199 217
5.566507e-001 8.410865e-001 -5.615552e+000 202 159 176
-7.084952e-001 7.000562e-001 -4.623898e+000 146 87 107
4.087121e-001 9.135101e-001 -5.641308e+000 203 132 150
-8.146336e-001 7.757615e-001 -4.636844e+000 216 161 173
5.472142e-001 1.056807e+000 -5.677612e+000 142 34 59
-3.924907e+000 3.529201e+000 -1.202644e+001 144 80 72
-5.373660e+000 3.590823e+000 -1.179962e+001 128 72 58
-5.373660e+000 3.590823e+000 -1.179962e+001 128 72 58
-5.529900e+000 3.579381e+000 -1.172981e+001 125 72 64
-5.529900e+000 3.579381e+000 -1.172981e+001 125 72 64
-3.842129e+000 3.682529e+000 -1.211013e+001 129 57 41
-3.931105e+000 3.699136e+000 -1.216085e+001 130 57 30
-5.060278e+000 3.668350e+000 -1.177295e+001 130 72 56
-3.808615e+000 3.762196e+000 -1.208311e+001 132 53 30
-4.931366e+000 3.780947e+000 -1.183132e+001 134 72 65
-4.889213e+000 3.870287e+000 -1.180202e+001 135 75 58
-3.514781e+000 3.984952e+000 -1.210680e+001 143 85 86
2.395780e+000 -1.667213e+000 -5.816086e+000 214 38 63
7.297453e-001 2.559862e-001 -5.667685e+000 204 29 53
7.297453e-001 2.559862e-001 -5.667685e+000 204 29 53
-7.069877e-001 -3.181903e-001 -5.146288e+000 235 183 196
-7.573422e-001 5.260868e-001 -4.654736e+000 162 189 226
2.143111e+000 1.090239e+000 -6.015660e+000 212 176 116
-3.217890e+000 3.776776e+000 -1.484892e+001 29 26 34
8.284599e-001 -3.244397e-002 -5.793960e+000 81 4 10
-3.049713e+000 4.098980e+000 -1.695535e+001 96 85 103
1.259598e+000 -2.559067e+000 -1.341234e+001 25 29 49
1.941870e+000 -1.042460e+000 -6.864984e+000 203 178 60
1.300131e+000 -8.875077e-002 -5.438871e+000 215 151 156
7.375741e-001 4.930960e-002 -5.851692e+000 199 45 81
3.110885e-001 1.053773e-001 -5.682894e+000 204 42 82
7.493087e-001 1.434967e-001 -5.773794e+000 111 13 20
-5.429232e-001 3.670730e-001 -4.691021e+000 211 160 172
5.211168e-001 8.725023e-001 -5.659464e+000 138 12 28
-8.731634e-001 7.283651e-001 -4.620836e+000 224 165 176
2.067671e+000 -2.307545e+000 -1.198031e+001 104 96 105
8.689683e-001 -1.255916e-002 -5.766520e+000 223 197 213
2.195061e+000 5.339335e-001 -6.327503e+000 149 93 24
1.101426e+000 5.812781e-001 -5.559474e+000 102 6 13
-7.502108e-001 8.940483e-001 -4.690312e+000 158 124 143
2.960846e+000 -3.170030e+000 -9.402031e+000 122 117 137
2.742218e+000 -3.299290e+000 -1.007063e+001 117 111 132
2.315186e+000 -3.039955e+000 -1.124296e+001 108 101 117
2.654400e+000 -2.598464e+000 -1.025045e+001 120 114 129
2.583001e+000 -2.616670e+000 -1.040673e+001 67 55 65
2.272766e+000 -1.464948e+000 -6.068829e+000 201 153 45
2.272766e+000 -1.464948e+000 -6.068829e+000 201 153 45
2.353463e+000 -2.383797e+000 -1.118224e+001 74 53 61
2.173773e+000 -8.288930e-001 -6.398657e+000 217 194 83
2.214609e+000 -7.275072e-001 -6.327288e+000 163 137 40
2.255155e+000 -4.985234e-001 -6.212976e+000 225 194 63
-7.995805e-001 3.522796e-001 -4.703371e+000 245 237 249
1.081266e+000 4.853154e-001 -5.578286e+000 201 41 74
2.953299e+000 -3.278355e+000 -9.588161e+000 116 113 136
2.514669e+000 -3.477188e+000 -1.064939e+001 51 47 63
2.935958e+000 -3.009659e+000 -9.485004e+000 115 100 121
2.800665e+000 -3.102384e+000 -9.847472e+000 32 30 45
2.659883e+000 -3.183196e+000 -1.035163e+001 115 109 126
2.381622e+000 -3.300468e+000 -1.110996e+001 113 109 127
2.614632e+000 -2.669629e+000 -1.031377e+001 67 61 76
2.429666e+000 -2.826124e+000 -1.092400e+001 116 108 123
2.462241e+000 -2.570916e+000 -1.072631e+001 104 104 123
2.547575e+000 -2.465268e+000 -1.045999e+001 111 103 121
2.085857e+000 -2.021960e+000 -1.182215e+001 107 91 101
2.516092e+000 -5.742637e-001 -5.496074e+000 208 106 133
2.516092e+000 -5.742637e-001 -5.496074e+000 208 106 133
2.508189e+000 -5.120701e-001 -5.522642e+000 206 60 87
2.539374e+000 -4.503479e-001 -5.474234e+000 208 95 123
2.277901e+000 -4.563817e-001 -6.163058e+000 167 135 16
2.552656e+000 -2.293497e-001 -5.429610e+000 215 80 98
2.552656e+000 -2.293497e-001 -5.429610e+000 215 80 98
2.298579e+000 -3.821959e-002 -6.105494e+000 167 136 16
2.486718e+000 6.781739e-002 -5.572527e+000 184 158 92
-5.886734e-001 4.123888e-001 -4.720107e+000 220 158 170
2.307844e-001 6.352105e-001 -5.478933e+000 187 157 176
-6.796530e-001 8.723177e-001 -4.700880e+000 132 93 111
-2.474790e+000 3.153092e+000 -1.211639e+001 91 86 95
1.633987e+000 3.647567e-001 -6.042215e+000 205 41 51
-2.474143e+000 1.733060e+000 -1.250361e+001 124 105 114
1.904161e+000 -1.130885e+000 -6.848475e+000 226 207 90
-6.974512e-001 2.969104e-001 -4.805733e+000 223 153 168
-6.974512e-001 2.969104e-001 -4.805733e+000 223 153 168
1.366270e+000 1.017734e-001 -5.561075e+000 132 26 23
9.859369e-001 1.351536e-001 -5.809661e+000 135 14 22
-8.613558e-001 1.714310e-001 -4.716819e+000 223 160 168
1.435279e+000 1.284445e+000 -5.365167e+000 200 144 155
-1.922648e+000 2.025911e+000 -1.175022e+001 121 100 115
-4.307907e-001 -1.686932e-001 -5.065241e+000 251 208 218
1.173276e+000 4.110132e-002 -5.527745e+000 134 59 62
7.991240e-001 -2.257299e+000 -1.240597e+001 150 127 125
-7.310407e-001 2.767622e-001 -4.696817e+000 217 152 166
4.050391e-001 6.218567e-001 -5.504922e+000 249 236 236
2.155442e+000 -1.791175e+000 -9.081903e+000 197 186 164
1.936824e+000 -1.057385e+000 -6.854393e+000 234 210 88
2.227522e+000 -6.328739e-001 -6.240569e+000 243 216 80
2.260103e+000 -5.310839e-001 -6.159611e+000 190 158 35
2.267559e+000 -5.326010e-001 -6.172176e+000 190 158 35
-4.732573e-001 3.157981e-001 -4.675504e+000 186 125 131
-5.112296e-001 3.818717e-001 -4.682572e+000 149 91 108
-8.636461e-001 7.631310e-001 -4.638757e+000 184 119 134
2.353064e+000 -2.270900e+000 -1.107791e+001 153 149 170
2.147862e+000 -8.357816e-001 -6.436671e+000 184 192 135
2.147862e+000 -8.357816e-001 -6.436671e+000 184 192 135
2.240689e+000 -5.862581e-001 -6.259620e+000 246 219 83
1.195272e+000 -3.418563e-001 -5.448390e+000 163 93 103
1.281350e+000 -1.288405e-001 -5.424001e+000 156 83 91
-4.914563e-001 2.947852e-001 -4.681772e+000 247 197 208
2.644592e+000 -3.027900e+000 -1.029909e+001 140 131 150
2.560338e+000 -2.665191e+000 -1.047115e+001 128 115 128
2.406294e+000 -2.786496e+000 -1.095393e+001 80 68 82
2.173192e+000 -9.307020e-001 -6.391107e+000 200 170 46
2.173192e+000 -9.307020e-001 -6.391107e+000 200 170 46
2.218194e+000 -8.770056e-001 -6.296236e+000 200 173 44
2.178360e+000 -8.610445e-001 -6.357401e+000 196 170 45
2.178360e+000 -8.610445e-001 -6.357401e+000 196 170 45
1.981983e+000 -2.112420e+000 -1.205515e+001 74 49 49
2.267870e+000 -4.943720e-001 -6.166301e+000 206 173 42
-8.671049e-001 -4.105681e-001 -5.330720e+000 236 189 200
2.257566e+000 -3.744471e-001 -6.217548e+000 206 171 32
-9.094181e-001 -2.467936e-001 -5.132929e+000 157 204 237
-9.175395e-001 -2.003453e-001 -5.086792e+000 119 141 190
9.258958e-001 1.158893e-001 -5.786907e+000 150 41 66
-8.889468e-001 2.757519e-001 -4.718477e+000 228 166 183
-6.565978e-001 3.523910e-001 -4.693486e+000 202 130 146
3.621168e-001 6.108388e-001 -5.461938e+000 155 106 126
3.758378e-001 6.352845e-001 -5.472049e+000 247 224 229
-1.039851e+000 7.751909e-001 -4.681324e+000 249 196 203
1.671378e+000 1.396058e+000 -5.516407e+000 189 140 135
9.210732e-001 4.883500e-001 -5.558831e+000 213 195 202
9.210732e-001 4.883500e-001 -5.558831e+000 213 195 202
2.629137e+000 -3.246607e+000 -1.039108e+001 65 50 61
1.926278e+000 -3.758183e+000 -1.240999e+001 90 91 111
1.926278e+000 -3.758183e+000 -1.240999e+001 90 91 111
-4.642892e-001 2.268832e-001 -4.668310e+000 225 173 182
5.074748e-001 1.063735e+000 -5.670432e+000 140 30 54
1.658079e+000 2.904259e+000 -7.430708e+000 141 136 153
-5.442283e-001 3.592228e-001 -4.676973e+000 240 193 203
-8.420662e-002 6.584681e-001 -5.542247e+000 233 45 74
-2.869526e+000 1.059253e+000 -1.280653e+001 117 96 105
6.220398e-001 1.661930e+000 -5.949212e+000 96 5 3
2.542335e+000 -6.282628e-001 -5.461867e+000 255 64 99
2.542335e+000 -6.282628e-001 -5.461867e+000 255 64 99
1.459695e-001 5.446221e-001 -5.466004e+000 104 39 63
8.678557e-001 6.846368e-001 -5.655848e+000 234 44 79
4.373479e-001 8.524324e-001 -5.638832e+000 180 37 58
1.216550e+000 1.375804e+000 -5.751464e+000 75 43 27
2.674405e+000 -3.385312e+000 -1.027239e+001 128 117 139
1.146653e+000 -3.185703e-001 -5.431587e+000 244 181 190
2.105203e-001 5.267984e-001 -5.472455e+000 150 99 104
5.736546e-001 9.288147e-001 -5.658720e+000 194 28 51
1.544186e+000 1.250145e+000 -5.362309e+000 185 130 132
1.504251e-001 1.209726e+000 -5.725336e+000 117 3 7
5.862545e-001 1.367688e+000 -5.959370e+000 78 0 0
-3.332907e-001 1.748227e+000 -9.672519e+000 6 6 4
1.332319e+000 2.523155e+000 -8.098917e+000 19 14 17
1.685591e+000 -4.651680e+000 -1.323009e+001 92 88 103
2.539900e+000 -3.586050e+000 -1.061948e+001 126 118 137
2.121285e+000 -3.975559e+000 -1.185156e+001 117 113 130
1.803010e+000 -4.406125e+000 -1.294321e+001 60 44 54
2.072214e+000 -3.318513e+000 -1.195041e+001 74 62 78
2.150291e+000 -9.427471e-001 -6.428693e+000 242 216 84
2.161267e+000 -8.232251e-001 -6.375659e+000 240 220 94
4.786982e-001 8.442535e-001 -5.653896e+000 230 194 214
4.786982e-001 8.442535e-001 -5.653896e+000 230 194 214
-3.298664e-001 1.690220e+000 -9.700716e+000 72 59 60
-6.272094e-001 1.750620e+000 -1.026713e+001 14 12 15
1.636969e+000 2.419031e+000 -7.549311e+000 115 95 82
1.636969e+000 2.419031e+000 -7.549311e+000 115 95 82
2.664536e+000 -3.430770e+000 -1.034691e+001 124 118 149
2.739495e+000 -3.290352e+000 -1.003957e+001 146 138 160
1.835321e+000 -4.306067e+000 -1.275913e+001 106 103 119
2.830962e+000 -3.102419e+000 -9.802203e+000 124 114 122
2.334709e+000 -3.264602e+000 -1.118798e+001 117 110 129
1.865411e+000 -3.204303e+000 -1.253403e+001 110 102 119
-8.766683e-001 6.078896e-002 -4.702668e+000 236 173 188
-5.125216e-001 4.112752e-001 -4.713016e+000 196 138 152
4.673331e-001 9.013916e-001 -5.648689e+000 235 153 173
5.975470e-001 1.049413e+000 -5.678984e+000 162 28 49
4.588425e-001 1.049927e+000 -5.663539e+000 223 201 224
2.555761e+000 -2.860638e-001 -5.410264e+000 227 157 174
2.630952e+000 -2.687204e-002 -5.391486e+000 221 180 195
2.536395e+000 -3.664478e-001 -5.423047e+000 205 169 184
2.582150e+000 -3.392318e-001 -5.372358e+000 213 36 57
2.561246e+000 -1.992148e-001 -5.373824e+000 220 180 189
2.538185e+000 -5.784003e-002 -5.391572e+000 214 39 53
2.598542e+000 1.206402e-001 -5.275968e+000 220 188 205
2.598542e+000 1.206402e-001 -5.275968e+000 220 188 205
2.556585e+000 -5.487149e-001 -5.445263e+000 214 37 60
-3.068636e+000 -5.348379e-001 -1.504380e+001 103 100 125
-6.907328e-001 6.469227e-001 -4.615926e+000 220 167 180
-9.733415e-001 6.722329e-001 -4.612867e+000 158 96 117
2.844393e+000 -3.009669e+000 -9.810222e+000 87 79 92
2.238583e+000 -7.488753e-001 -6.260534e+000 161 135 39
2.247573e+000 -5.373633e-001 -6.221643e+000 213 182 65
2.565103e+000 -1.214113e-001 -5.392617e+000 228 185 199
-3.085333e+000 -5.654913e-001 -1.521533e+001 105 101 122
-2.272054e+000 4.124748e-001 -1.242090e+001 30 23 27
-2.272054e+000 4.124748e-001 -1.242090e+001 30 23 27
-7.382096e-001 4.271893e-001 -4.666580e+000 168 140 174
4.280544e-001 1.119214e+000 -5.665401e+000 204 168 181
4.280544e-001 1.119214e+000 -5.665401e+000 204 168 181
2.947934e+000 -3.156185e+000 -9.375575e+000 81 74 89
2.228790e+000 -7.950343e-001 -6.267060e+000 159 131 35
2.228790e+000 -7.950343e-001 -6.267060e+000 159 131 35
2.547551e+000 -4.234433e-001 -5.431866e+000 226 180 196
2.554104e+000 -3.636143e-001 -5.410087e+000 229 182 199
2.562774e+000 -7.781331e-003 -5.374404e+000 229 167 175
2.562774e+000 -7.781331e-003 -5.374404e+000 229 167 175
2.602896e+000 1.540974e-001 -5.256487e+000 208 43 65
2.615793e+000 2.516313e-001 -5.233706e+000 190 71 99
-1.994011e+000 5.199409e-001 -1.199205e+001 41 29 37
-1.897809e+000 5.781013e-001 -1.183975e+001 39 29 37
-1.069719e+000 6.108751e-001 -4.638851e+000 177 111 130
4.063026e-001 9.123757e-001 -5.638745e+000 183 112 129
5.814016e-001 9.943474e-001 -5.667283e+000 134 8 22
2.836014e+000 -2.928460e+000 -9.715920e+000 41 31 41
2.189695e+000 -9.240323e-001 -6.361466e+000 205 177 65
2.566573e+000 -3.068220e-001 -5.396216e+000 235 185 202
2.559377e+000 -2.119291e-001 -5.404154e+000 230 182 190
2.209207e+000 -3.870382e+000 -4.138855e+001 153 182 225
2.580085e+000 -5.468741e-002 -5.332594e+000 190 82 110
2.580085e+000 -5.468741e-002 -5.332594e+000 190 82 110
2.608363e+000 1.293315e-001 -5.241915e+000 232 168 187
2.612703e+000 1.736004e-001 -5.226074e+000 249 156 168
2.612703e+000 1.736004e-001 -5.226074e+000 249 156 168
1.020915e+000 1.595327e+000 -5.797447e+000 190 117 131
8.145219e-002 -6.139640e-003 -1.389711e-001 0 255 0
8.121432e-002 -6.284452e-003 -1.889703e-001 255 255 0
-5.423995e-001 6.541790e-001 1.896346e-001 255 0 0
-5.397906e-001 6.517592e-001 1.397614e-001 255 255 0
-1.131786e+000 1.648789e-001 -4.652161e-001 0 255 0
-1.120587e+000 1.633826e-001 -5.139227e-001 255 255 0
-1.171233e+000 2.134787e+000 -2.715556e-001 255 0 0
-1.158813e+000 2.124810e+000 -3.189496e-001 255 255 0
