ply
format ascii 1.0
element face 0
property list uchar int vertex_indices
element vertex 891
property float x
property float y
property float z
property uchar diffuse_red
property uchar diffuse_green
property uchar diffuse_blue
end_header
-4.433865e-002 -1.003107e-001 2.735272e+000 148 136 118
1.566199e-001 -2.222159e-001 2.753019e+000 156 141 118
1.212570e-001 -9.010424e-002 2.845476e+000 60 63 56
1.524189e-001 -8.353120e-002 2.870581e+000 61 64 55
3.406271e-001 -1.045838e-001 3.015641e+000 116 104 88
3.400942e-001 -1.054229e-001 3.016736e+000 116 104 88
3.257307e-001 1.359698e-002 3.127571e+000 143 132 113
3.296257e-003 -2.668283e-002 2.836470e+000 156 141 117
1.223377e-001 -1.991651e-001 2.752663e+000 151 137 115
1.223377e-001 -1.991651e-001 2.752663e+000 151 137 115
2.941485e-003 -6.355431e-002 2.807621e+000 67 56 45
5.292239e-002 -1.624818e-001 2.738500e+000 58 51 40
6.864392e-002 -1.925396e-001 2.723444e+000 64 57 48
8.852452e-002 -2.058371e-001 2.719355e+000 154 141 115
4.343845e-002 -1.034132e-001 2.792475e+000 154 144 118
8.776353e-002 -1.897551e-001 2.743839e+000 66 58 51
8.776353e-002 -1.897551e-001 2.743839e+000 66 58 51
6.890367e-002 -1.024050e-001 2.808474e+000 155 148 127
9.134097e-003 2.712022e-002 2.904642e+000 154 146 126
9.134097e-003 2.712022e-002 2.904642e+000 154 146 126
6.645373e-002 -7.815642e-002 2.832156e+000 151 136 116
6.645373e-002 -7.815642e-002 2.832156e+000 151 136 116
6.907939e-002 -6.155180e-002 2.845535e+000 60 57 48
-7.395049e-002 3.318755e-001 3.242672e+000 69 61 46
-6.096215e-002 3.473750e-001 3.272117e+000 157 146 124
4.131585e-001 -2.280683e-001 2.933187e+000 157 143 115
-4.708186e-002 -1.325944e-001 2.694552e+000 64 53 35
1.562716e-002 -3.055389e-002 2.843491e+000 150 144 119
-5.051708e-002 3.632523e-001 3.302511e+000 93 85 71
3.661194e-001 -1.489080e-001 2.979247e+000 157 144 127
1.124163e-001 -1.967689e-001 2.741002e+000 155 140 115
1.696102e-002 3.317620e-002 2.918173e+000 67 61 47
2.614564e-001 -7.561338e-001 3.395914e+000 76 89 98
2.941485e-003 -6.355431e-002 2.807621e+000 67 56 45
5.284446e-002 -1.624472e-001 2.738449e+000 58 51 40
3.126258e-002 -1.032775e-001 2.782170e+000 156 146 121
2.675320e-001 -4.668690e-001 3.495154e+000 192 199 205
4.302295e-002 -1.249846e-001 2.765378e+000 148 144 127
2.448960e-001 -7.626570e-001 3.385037e+000 180 193 201
2.426041e-001 -2.545123e-001 2.749065e+000 63 64 59
2.426041e-001 -2.545123e-001 2.749065e+000 63 64 59
4.600694e-001 -2.022973e-001 2.972656e+000 106 94 78
9.003842e-002 -1.438128e-001 2.785246e+000 152 143 117
9.431756e-002 -1.138167e-001 2.815940e+000 61 58 50
1.977583e-002 -5.322489e-002 2.824636e+000 151 144 119
-5.246431e-002 -7.920870e-002 2.741222e+000 63 52 34
6.070116e-002 -1.027008e-001 2.802473e+000 152 141 121
8.431172e-002 -1.636673e-001 2.761781e+000 55 50 35
6.285990e-002 -1.335698e-003 2.920531e+000 60 61 53
-5.362050e-002 3.346823e-001 3.258652e+000 67 58 41
-1.313807e-001 2.294587e-001 3.086165e+000 154 147 132
2.943341e-001 -1.135938e-002 3.065444e+000 155 143 118
4.329239e-002 -4.420737e-002 2.865011e+000 149 142 118
1.018988e-001 -1.681461e-001 2.756668e+000 65 59 52
1.167808e-001 -2.569797e-001 2.650712e+000 67 63 52
-1.324842e-002 5.667587e-002 2.947396e+000 151 141 119
2.078177e-002 -2.162093e-002 2.875229e+000 138 133 105
2.014714e-001 -8.268181e-001 3.323844e+000 192 205 213
1.376716e-001 -7.564180e-001 3.293050e+000 103 118 125
3.229452e-001 -6.471479e-001 3.464642e+000 79 88 95
-1.088959e-002 -6.830931e-001 3.186993e+000 110 123 131
2.651779e-001 -8.042234e-001 3.392759e+000 190 203 210
2.681444e-001 -8.042566e-001 3.390110e+000 190 203 210
2.604400e-001 -6.820456e-001 3.410532e+000 95 109 118
2.384840e-001 -6.809428e-001 3.393957e+000 143 156 164
2.652021e-001 -7.576014e-001 3.394435e+000 76 89 98
-7.244728e-002 -6.605742e-001 3.143609e+000 166 178 185
-8.901923e-002 -6.676284e-001 3.124937e+000 169 181 190
4.305250e-002 -7.187479e-001 3.221978e+000 139 156 164
3.752946e-002 -7.177136e-001 3.221333e+000 139 156 164
-1.059733e-001 -6.684228e-001 3.110962e+000 169 180 189
2.991332e-001 -7.931159e-001 3.419077e+000 199 209 218
2.597985e-001 -7.761345e-001 3.386966e+000 186 199 207
2.874963e-001 -7.739226e-001 3.409069e+000 197 210 219
1.302466e-001 -7.673962e-001 3.288919e+000 174 189 196
2.716041e-002 -7.139049e-001 3.204759e+000 118 135 143
3.126987e-001 -6.338578e-001 3.457036e+000 163 174 180
-3.781170e-003 -3.143573e-001 2.535416e+000 19 7 0
1.464241e-001 -7.564043e-001 3.309247e+000 184 197 206
3.645334e-002 -7.187283e-001 3.212790e+000 185 202 210
-4.583429e-002 -6.757038e-001 3.157217e+000 166 180 187
-3.767001e-002 -6.552696e-001 3.175179e+000 170 183 191
3.260693e-001 -6.855921e-001 3.404278e+000 192 205 211
8.423810e-002 -6.734614e-001 3.290241e+000 179 194 201
-1.834598e+000 9.447596e-001 3.775590e+000 61 89 113
2.349376e-001 -2.448164e-001 2.732299e+000 65 58 46
-1.678598e+000 9.149220e-001 3.861118e+000 61 92 120
-1.901580e+000 9.701161e-001 3.681865e+000 124 143 154
-3.035677e-001 -6.038942e-001 3.028473e+000 138 126 104
8.924605e-002 -4.461937e-001 2.612494e+000 57 44 27
2.306574e-002 9.623677e-002 2.978024e+000 158 142 117
-1.632843e+000 8.134410e-001 3.792671e+000 150 161 165
-1.934057e+000 1.059866e+000 3.663994e+000 78 106 129
2.844256e-001 -8.445844e-001 3.386253e+000 186 199 207
5.888793e-002 -2.526428e-001 2.584947e+000 145 137 115
3.891082e-001 -8.772783e-001 3.356758e+000 200 211 217
-4.631685e-001 -7.313537e-001 2.813491e+000 126 111 88
8.808606e-002 -5.550467e-001 3.020073e+000 111 99 82
-1.420480e+000 9.182620e-001 3.934342e+000 18 45 81
-1.514347e+000 9.659168e-001 3.877377e+000 97 29 28
-1.432615e+000 1.002187e+000 3.854414e+000 9 55 26
-4.383292e-001 -8.382861e-001 2.759824e+000 135 124 102
4.351028e-002 -7.340972e-003 2.908053e+000 158 144 118
3.999127e-002 4.196014e-002 2.956752e+000 58 63 52
-8.642825e-002 1.537638e-001 2.989926e+000 64 63 56
-1.597944e+000 8.022656e-001 3.815032e+000 69 96 117
-1.453479e+000 8.920279e-001 3.899542e+000 99 121 144
-1.469082e+000 9.164847e-001 3.886423e+000 17 36 65
-1.438631e+000 9.811821e-001 3.821066e+000 64 106 105
-1.470013e+000 1.013351e+000 3.823893e+000 12 62 43
-4.658876e-001 -7.275353e-001 2.822237e+000 129 117 94
-4.295299e-001 -7.050287e-001 2.793692e+000 131 118 97
1.936911e-001 -6.078521e-001 3.321444e+000 89 83 73
1.931316e-001 -6.080203e-001 3.320176e+000 89 83 73
-5.041988e-001 -5.519071e-001 2.931100e+000 128 121 99
1.147195e-001 -5.638750e-001 3.058102e+000 128 113 92
-1.737577e-001 -5.719207e-001 2.822365e+000 122 76 68
8.784432e-002 -4.871678e-001 2.770325e+000 60 48 32
2.862227e-001 -4.764052e-001 2.889806e+000 80 64 46
2.556554e-001 -4.555794e-001 2.801032e+000 126 109 83
3.369002e-001 -4.334257e-001 2.837126e+000 66 53 36
1.650706e-001 -4.294882e-001 2.662058e+000 76 63 47
1.115946e-001 -2.298310e-001 2.706045e+000 93 87 81
1.326499e-001 -2.295452e-001 2.713988e+000 150 148 134
4.075599e-001 -1.243261e-001 3.022089e+000 142 134 115
1.012583e-001 -4.398067e-002 2.898346e+000 78 70 51
-1.547237e+000 9.258837e-001 3.855136e+000 88 107 121
-1.451670e+000 1.051376e+000 3.842004e+000 46 90 80
2.528778e-003 -6.419637e-001 3.257232e+000 172 183 189
-1.965330e-003 -6.232402e-001 3.166142e+000 78 68 51
-2.876776e-002 -6.253739e-001 3.127807e+000 85 76 61
-2.876776e-002 -6.253739e-001 3.127807e+000 85 76 61
-6.812110e-002 -6.255797e-001 3.108032e+000 90 82 63
-9.808782e-002 -6.277139e-001 3.072247e+000 112 102 85
-1.435609e-001 -6.278930e-001 3.028526e+000 92 84 66
-1.890878e-001 -6.161977e-001 3.045621e+000 85 79 63
-1.746773e-001 -6.303992e-001 2.995180e+000 90 83 65
-4.277715e-001 -6.405825e-001 2.824978e+000 131 124 105
1.283898e-002 -5.420173e-001 2.868462e+000 129 114 93
5.575921e-002 -4.708392e-001 2.709050e+000 123 106 81
5.575921e-002 -4.708392e-001 2.709050e+000 123 106 81
8.413182e-002 -4.534285e-001 2.674254e+000 123 106 80
3.680787e-001 -4.380639e-001 2.829769e+000 126 109 84
1.119827e-001 -4.349825e-001 2.632730e+000 129 112 86
-8.474517e-002 1.604695e-001 2.995252e+000 65 63 52
-1.385282e+000 8.871199e-001 3.957530e+000 123 132 149
-1.914420e+000 9.570957e-001 3.672391e+000 143 160 171
-1.722733e+000 9.866810e-001 3.804032e+000 134 162 183
-1.434957e+000 9.821589e-001 3.859493e+000 3 37 14
-1.451746e+000 1.010699e+000 3.832049e+000 9 60 33
-1.451746e+000 1.010699e+000 3.832049e+000 9 60 33
-6.259464e-002 -6.602264e-001 3.149697e+000 164 176 184
-1.528636e-001 -6.164291e-001 3.076120e+000 95 84 66
-1.557870e-001 -6.180673e-001 2.981074e+000 134 121 102
-4.295470e-002 -5.797659e-001 2.978052e+000 125 114 96
2.122209e-001 -5.624073e-001 3.154461e+000 87 74 58
-4.571827e-002 -5.692079e-001 2.947039e+000 123 113 95
-9.678065e-002 -5.661546e-001 2.889689e+000 129 118 96
-1.578761e-002 -5.603357e-001 2.937540e+000 120 111 94
1.546426e-001 -5.490215e-001 3.051027e+000 91 79 66
-6.359452e-002 -5.495398e-001 2.838326e+000 126 112 90
-4.667005e-002 -5.396450e-001 2.814012e+000 130 116 91
1.602644e-001 -5.206731e-001 2.948920e+000 128 113 92
8.706818e-003 -5.053895e-001 2.781457e+000 126 110 84
1.121415e-001 -4.725886e-001 2.770617e+000 124 109 86
1.073714e-001 -2.429481e-001 2.686296e+000 147 136 112
1.073714e-001 -2.429481e-001 2.686296e+000 147 136 112
1.758592e-002 -2.453899e-001 2.607537e+000 145 136 107
1.242006e-001 -1.718921e-001 2.762978e+000 62 57 47
-1.789440e-002 -1.478240e-001 2.696569e+000 154 142 119
7.636728e-002 -1.363222e-001 2.772788e+000 65 62 53
-3.555456e-003 -3.770584e-002 2.840608e+000 67 63 50
-4.514036e-002 1.465736e-001 3.011101e+000 71 64 54
-1.405503e-001 2.157281e-001 3.018573e+000 160 148 125
-1.996748e+000 9.896796e-001 3.620106e+000 124 156 177
-1.423789e+000 9.847899e-001 3.873126e+000 79 109 103
-1.427900e+000 1.032493e+000 3.853929e+000 97 133 126
2.824675e-001 -7.682662e-001 3.429330e+000 197 210 219
1.707945e-001 -7.321785e-001 3.339920e+000 188 205 213
1.788971e-001 -7.369580e-001 3.328073e+000 188 205 213
2.999048e-001 -6.265992e-001 3.479468e+000 163 174 180
-3.311397e-002 -6.482596e-001 3.192092e+000 166 176 185
8.469578e-002 -6.263732e-001 3.249930e+000 119 110 93
-4.094915e-002 -6.225854e-001 3.108617e+000 74 62 46
2.047923e-002 -6.147395e-001 3.153189e+000 127 116 97
-1.416551e-001 -6.071763e-001 2.958939e+000 135 124 105
-8.319152e-002 -6.017420e-001 3.008575e+000 81 74 56
2.728212e-001 -5.629134e-001 3.233474e+000 126 114 93
1.077875e-001 -5.695406e-001 3.076865e+000 127 114 95
2.451512e-002 -5.701546e-001 3.020216e+000 80 68 54
1.817872e-001 -5.637899e-001 3.128697e+000 74 66 49
1.227619e-001 -5.627339e-001 3.081240e+000 75 62 45
-3.719743e-002 -5.731970e-001 2.937456e+000 122 114 95
9.019201e-002 -5.589436e-001 3.042546e+000 82 70 54
7.911954e-002 -5.615021e-001 3.026445e+000 79 66 50
2.807441e-002 -5.399247e-001 2.903475e+000 95 84 66
-1.226854e-003 -5.445969e-001 2.863044e+000 99 88 70
1.018793e-001 -5.208573e-001 2.890952e+000 125 110 89
6.807063e-002 -5.099978e-001 2.835117e+000 124 109 90
9.931521e-002 -4.861161e-001 2.792616e+000 125 110 89
1.831528e-002 -4.644739e-001 2.692039e+000 121 105 82
1.572040e-001 -4.527544e-001 2.713472e+000 119 107 84
1.572040e-001 -4.527544e-001 2.713472e+000 119 107 84
5.425359e-002 -4.530386e-001 2.637747e+000 125 111 87
8.686485e-002 -4.322467e-001 2.587915e+000 121 107 81
8.686485e-002 -4.322467e-001 2.587915e+000 121 107 81
1.643071e-002 -2.329243e-001 2.626017e+000 71 60 52
6.983031e-002 -1.462599e-001 2.764287e+000 146 139 118
6.983031e-002 -1.462599e-001 2.764287e+000 146 139 118
6.983031e-002 -1.462599e-001 2.764287e+000 146 139 118
-4.312910e-002 -8.226921e-002 2.748692e+000 149 140 117
3.108569e-002 -4.934259e-002 2.845789e+000 157 147 122
-5.724436e-003 -1.439266e-002 2.839886e+000 64 61 49
8.642121e-002 -4.372793e-003 2.931544e+000 67 62 56
-5.532076e-002 1.128209e-001 2.973481e+000 55 55 44
-7.007101e-002 1.269608e-001 2.957934e+000 71 64 50
-5.559089e-002 1.431215e-001 3.004255e+000 152 142 117
-1.024217e-001 1.841644e-001 3.013502e+000 151 146 118
-1.764679e+000 6.347539e-001 3.958351e+000 104 139 176
-1.764679e+000 6.347539e-001 3.958351e+000 104 139 176
-1.567347e+000 9.132925e-001 3.838686e+000 101 127 142
-1.757064e+000 9.815565e-001 3.777783e+000 120 153 172
4.373195e-001 -6.937679e-001 3.551722e+000 155 150 128
-1.613295e-002 -6.603186e-001 3.194697e+000 166 180 186
-1.173236e-001 -6.499788e-001 3.110847e+000 158 168 176
-6.526767e-002 -6.470039e-001 3.152548e+000 67 73 74
8.755694e-002 -6.114381e-001 3.217822e+000 124 115 98
-7.670854e-002 -6.193931e-001 3.059721e+000 132 121 103
-8.016197e-002 -6.094584e-001 3.054743e+000 87 75 59
-9.167167e-002 -6.108235e-001 3.016472e+000 130 122 104
1.419613e-001 -6.156663e-001 3.073203e+000 86 80 67
1.419613e-001 -6.156663e-001 3.073203e+000 86 80 67
1.511947e-001 -5.782332e-001 3.142466e+000 125 115 97
1.117720e-001 -5.791884e-001 3.115745e+000 91 85 72
1.150454e-001 -5.811282e-001 3.111052e+000 91 85 72
1.157809e-001 -5.763202e-001 3.097202e+000 52 46 32
1.938820e-001 -5.606916e-001 3.146732e+000 80 68 52
5.232492e-002 -5.324906e-001 2.914217e+000 127 112 91
-9.767125e-003 -5.341191e-001 2.855588e+000 129 114 93
-1.581057e-002 -5.370967e-001 2.839140e+000 124 110 87
1.123609e-001 -5.229505e-001 2.938570e+000 119 107 85
1.152474e-001 -5.220531e-001 2.911172e+000 128 113 92
-9.946996e-004 -5.262047e-001 2.829783e+000 119 108 89
5.781367e-003 -5.105219e-001 2.777750e+000 129 114 91
-3.400312e-002 -5.059588e-001 2.769091e+000 123 111 89
-4.227244e-004 -4.945493e-001 2.721099e+000 122 109 87
-4.227244e-004 -4.945493e-001 2.721099e+000 122 109 87
1.832781e-001 -4.846327e-001 2.854141e+000 122 107 86
1.832781e-001 -4.846327e-001 2.854141e+000 122 107 86
3.153471e-002 -4.765446e-001 2.696848e+000 120 105 86
2.136940e-001 -4.675832e-001 2.815590e+000 122 107 85
2.124338e-001 -4.668217e-001 2.817405e+000 122 107 85
2.160922e-001 -4.556840e-001 2.802932e+000 124 109 86
1.658287e-001 -4.562150e-001 2.759887e+000 123 108 85
1.954714e-001 -4.508591e-001 2.735091e+000 124 108 85
1.907460e-001 -4.482645e-001 2.740175e+000 124 108 85
1.828965e-001 -4.381817e-001 2.703759e+000 117 102 81
4.990737e-001 -4.028073e-001 2.810569e+000 142 126 100
4.783697e-001 -4.038497e-001 2.793405e+000 144 128 103
5.084187e-001 -4.011285e-001 2.819367e+000 141 125 100
3.067030e-001 -4.011212e-001 2.671157e+000 133 117 93
3.893241e-001 -1.770554e-001 2.947607e+000 153 139 119
-5.777752e-002 -8.313302e-002 2.735381e+000 150 144 123
-4.966651e-002 -6.754665e-002 2.773751e+000 63 54 42
-4.966651e-002 -6.754665e-002 2.773751e+000 63 54 42
-6.401751e-002 -4.847646e-002 2.773812e+000 68 58 47
-5.859274e-002 -3.974480e-002 2.786914e+000 156 143 125
-1.139164e-002 5.270521e-002 2.929339e+000 150 140 115
-9.615862e-002 1.903628e-001 3.019230e+000 72 65 54
-2.416435e-002 4.400804e-001 3.373419e+000 85 77 58
2.775422e-001 -8.258111e-001 3.322852e+000 193 206 215
2.846822e-001 -7.853125e-001 3.426388e+000 199 211 219
2.580578e-001 -6.819087e-001 3.414602e+000 191 205 214
3.140483e-001 -6.490499e-001 3.498191e+000 192 201 206
3.292337e-001 -6.571529e-001 3.476815e+000 192 201 206
3.160993e-001 -6.537927e-001 3.466122e+000 111 120 127
-1.294805e-001 -6.495729e-001 3.096417e+000 151 159 163
1.243960e-001 -6.190769e-001 3.267899e+000 112 106 90
8.778916e-002 -6.207897e-001 3.236686e+000 130 121 105
7.488878e-002 -6.217170e-001 3.221316e+000 129 120 103
4.317622e-002 -6.166966e-001 3.185378e+000 56 49 36
-5.632529e-002 -6.164761e-001 3.078593e+000 132 120 102
-5.541894e-002 -6.168155e-001 3.078715e+000 132 120 102
1.868203e-001 -5.971998e-001 3.233687e+000 54 48 34
1.868203e-001 -5.971998e-001 3.233687e+000 54 48 34
-1.464638e-002 -5.843955e-001 3.031474e+000 128 117 97
2.495298e-001 -5.665380e-001 3.215734e+000 124 113 96
2.449432e-001 -5.672330e-001 3.163917e+000 130 116 98
2.315836e-001 -5.610835e-001 3.183213e+000 130 116 98
-4.685072e-002 -5.748400e-001 2.930255e+000 79 71 54
2.501472e-001 -4.741015e-001 3.551969e+000 195 202 208
2.603954e-001 -5.295825e-001 3.044107e+000 65 51 33
-3.794950e-003 -5.327458e-001 2.863219e+000 129 114 95
2.239061e-001 -5.185675e-001 3.019082e+000 116 101 82
4.951425e-002 -5.238364e-001 2.887043e+000 123 110 90
8.812141e-002 -5.083945e-001 2.868438e+000 118 105 86
9.276962e-002 -5.111213e-001 2.861989e+000 118 105 86
1.652629e-001 -5.072236e-001 2.905983e+000 124 109 90
8.863222e-002 -5.055619e-001 2.850664e+000 127 111 95
1.585742e-001 -5.016226e-001 2.883499e+000 125 113 90
1.585742e-001 -5.016226e-001 2.883499e+000 125 113 90
1.797323e-001 -4.867045e-001 2.833988e+000 127 115 93
2.264970e-001 -4.733438e-001 2.873306e+000 119 105 86
2.352457e-001 -4.773907e-001 2.862197e+000 119 105 86
2.352457e-001 -4.773907e-001 2.862197e+000 119 105 86
1.289495e-002 -4.751789e-001 2.697536e+000 121 105 86
6.383299e-002 -4.532599e-001 2.651816e+000 126 114 92
6.558990e-002 -4.541306e-001 2.645864e+000 126 114 92
3.196407e-001 -4.430817e-001 2.815067e+000 121 106 87
3.395319e-001 -4.331672e-001 2.788650e+000 126 111 91
3.395319e-001 -4.331672e-001 2.788650e+000 126 111 91
4.313554e-001 -4.305776e-001 2.845075e+000 67 51 27
3.096273e-001 -4.326329e-001 2.762643e+000 127 110 90
3.102603e-001 -4.328423e-001 2.763031e+000 127 110 90
3.900134e-001 -4.010844e-001 2.735873e+000 144 128 105
3.570668e-001 -3.996956e-001 2.711274e+000 135 119 98
8.419553e-002 -1.561101e-001 2.764342e+000 168 161 143
7.164199e-002 -1.213727e-001 2.790950e+000 145 140 122
7.164199e-002 -1.213727e-001 2.790950e+000 145 140 122
8.211329e-002 -1.143984e-001 2.810332e+000 134 130 114
1.778144e-002 -2.025690e-003 2.889557e+000 144 140 119
1.778144e-002 -2.025690e-003 2.889557e+000 144 140 119
-3.829529e-002 6.448661e-002 2.925482e+000 62 54 43
3.022778e-002 -5.940949e-001 3.074632e+000 131 114 88
2.102232e-003 -6.553293e-001 3.239577e+000 184 194 203
2.316303e-001 -6.923545e-001 3.437316e+000 201 214 223
1.058585e-001 -4.483071e-001 2.696675e+000 124 103 76
3.265159e-001 -4.196859e-001 2.854389e+000 91 82 65
2.575314e-001 -5.292468e-001 3.020811e+000 133 112 86
2.236192e-002 -5.168919e-001 2.765345e+000 119 99 72
2.349363e-001 -8.346628e-001 3.405371e+000 198 210 216
2.884615e-002 -6.438373e-001 3.267497e+000 182 195 203
-8.964274e-002 -6.410700e-001 3.139446e+000 87 97 99
1.160155e-002 -5.530470e-001 2.868190e+000 125 108 84
5.759613e-001 -3.500250e-001 2.978010e+000 143 128 106
2.487868e-002 -7.057242e-001 3.233230e+000 170 187 197
-5.004547e-002 -6.292043e-001 3.122894e+000 131 115 92
-7.957580e-002 -6.319023e-001 3.089313e+000 133 117 92
-1.259073e-001 -6.287286e-001 3.044997e+000 83 70 55
-7.157125e-002 -6.265067e-001 3.075713e+000 107 97 79
-1.575362e-001 -5.622186e-001 2.774011e+000 157 169 173
9.948806e-003 -5.588442e-001 2.845717e+000 106 94 77
5.007777e-003 -5.483692e-001 2.835490e+000 126 109 84
1.011724e-001 -5.375997e-001 2.869473e+000 54 42 18
1.422683e-001 -5.091379e-001 2.864942e+000 124 102 79
2.635070e-001 -4.699737e-001 2.885280e+000 123 108 75
2.635070e-001 -4.699737e-001 2.885280e+000 123 108 75
5.108135e-001 -3.552494e-001 2.926541e+000 142 128 102
2.705539e-001 -3.637831e-001 2.720203e+000 142 125 100
5.595954e-001 -3.494524e-001 2.967557e+000 148 133 108
1.355435e-001 -7.641644e-001 3.327826e+000 196 213 221
1.875963e-001 -5.257108e-001 2.951903e+000 128 110 84
1.165931e-001 -5.141503e-001 2.853658e+000 126 109 77
8.635598e-002 -5.108845e-001 2.809094e+000 120 106 77
2.609046e-001 -4.621775e-001 2.866951e+000 115 99 73
2.466678e-001 -4.623691e-001 2.854100e+000 121 105 78
2.466678e-001 -4.623691e-001 2.854100e+000 121 105 78
1.926432e-001 -4.509103e-001 2.794517e+000 116 99 73
1.926432e-001 -4.509103e-001 2.794517e+000 116 99 73
1.926432e-001 -4.509103e-001 2.794517e+000 116 99 73
1.723313e-001 -4.250728e-001 2.719000e+000 116 100 77
3.058861e-001 -4.099891e-001 2.814980e+000 116 100 74
3.058861e-001 -4.099891e-001 2.814980e+000 116 100 74
2.327439e-001 -7.216630e-001 3.428914e+000 195 208 217
5.815872e-002 -6.245050e-001 3.235717e+000 69 59 47
1.228252e-001 -6.165729e-001 3.270238e+000 131 120 100
-1.496868e-001 -6.194676e-001 2.956872e+000 63 55 37
-1.368949e-001 -6.118327e-001 2.934968e+000 56 47 37
2.108480e-001 -4.470147e-001 3.499951e+000 197 204 210
2.074783e-001 -5.824677e-001 3.164010e+000 59 52 35
1.584072e-001 -5.741533e-001 3.134947e+000 130 116 91
9.057078e-002 -5.681454e-001 2.989259e+000 126 114 92
2.297828e-001 -5.255200e-001 3.011744e+000 129 113 91
-1.014815e-002 -5.338469e-001 2.788141e+000 118 103 79
-2.948738e-002 -5.336153e-001 2.764624e+000 118 103 78
2.259820e-001 -5.228045e-001 2.982612e+000 127 111 86
-2.298240e-002 -5.309819e-001 2.754316e+000 119 103 76
5.403570e-002 -5.214137e-001 2.809052e+000 122 104 79
5.403570e-002 -5.214137e-001 2.809052e+000 122 104 79
1.748268e-001 -5.065031e-001 2.887396e+000 125 109 84
1.342642e-001 -4.885312e-001 2.797846e+000 123 105 81
1.688240e-002 -4.907182e-001 2.692026e+000 118 103 79
2.046405e-001 -4.675634e-001 2.825897e+000 120 106 80
1.827725e-001 -4.675233e-001 2.807692e+000 114 100 74
1.097377e-001 -4.720649e-001 2.742066e+000 114 103 78
2.331622e-001 -4.616939e-001 2.840925e+000 121 105 79
2.184498e-001 -4.619300e-001 2.827315e+000 114 100 71
2.184498e-001 -4.619300e-001 2.827315e+000 114 100 71
1.859940e-001 -4.613712e-001 2.804012e+000 116 100 72
1.745241e-001 -4.626799e-001 2.788610e+000 116 103 76
1.745241e-001 -4.626799e-001 2.788610e+000 116 103 76
3.161810e-002 -4.615885e-001 2.655335e+000 50 39 28
1.257484e-001 -4.562770e-001 2.731337e+000 119 102 79
1.257484e-001 -4.562770e-001 2.731337e+000 119 102 79
1.623867e-001 -4.386935e-001 2.731253e+000 122 104 80
5.004574e-002 -4.353443e-001 2.626325e+000 44 36 25
2.172287e-001 -4.294762e-001 2.765212e+000 120 106 80
2.227567e-001 -4.289633e-001 2.768533e+000 121 107 84
2.227567e-001 -4.289633e-001 2.768533e+000 121 107 84
1.280505e-001 -4.277085e-001 2.690797e+000 119 101 77
1.280505e-001 -4.277085e-001 2.690797e+000 119 101 77
3.150826e-001 -4.193841e-001 2.837215e+000 122 107 84
1.447316e-001 -4.208679e-001 2.687753e+000 51 35 25
3.380510e-001 -4.082310e-001 2.838161e+000 120 105 78
3.380510e-001 -4.082310e-001 2.838161e+000 120 105 78
2.448266e-001 -4.096333e-001 2.760001e+000 114 98 72
2.448266e-001 -4.096333e-001 2.760001e+000 114 98 72
2.359639e-001 -4.100647e-001 2.751173e+000 121 105 79
2.359639e-001 -4.100647e-001 2.751173e+000 121 105 79
1.798060e-001 -4.078815e-001 2.695091e+000 57 45 28
6.841713e-002 -4.088956e-001 2.597295e+000 59 42 30
6.841713e-002 -4.088956e-001 2.597295e+000 59 42 30
2.649554e-001 -7.790060e-001 3.454440e+000 201 215 225
2.669958e-001 -7.620808e-001 3.455204e+000 200 217 227
1.319456e-001 -7.433939e-001 3.326601e+000 192 209 217
1.330401e-001 -7.303320e-001 3.333844e+000 192 206 215
3.026893e-001 -6.185479e-001 3.518735e+000 191 200 207
-1.009005e-001 -6.437380e-001 3.133783e+000 151 163 169
1.364819e-001 -6.150476e-001 3.282624e+000 134 123 103
9.854486e-002 -6.179882e-001 3.245731e+000 132 124 101
-8.724212e-002 -6.284183e-001 3.073155e+000 125 114 96
-4.354442e-002 -6.057470e-001 3.028841e+000 135 123 101
-9.893067e-003 -6.015481e-001 3.021857e+000 135 121 102
-9.235484e-002 -5.995040e-001 2.927291e+000 133 120 102
-7.354675e-002 -5.979922e-001 2.938998e+000 134 119 98
-7.354675e-002 -5.979922e-001 2.938998e+000 134 119 98
4.420315e-003 -5.933706e-001 3.006532e+000 128 115 96
1.498935e-001 -5.805935e-001 3.111471e+000 128 115 96
1.946594e-001 -5.766821e-001 3.149147e+000 128 115 96
-6.891870e-002 -5.912207e-001 2.911510e+000 127 112 93
-7.893028e-002 -5.912480e-001 2.905188e+000 125 112 93
6.203422e-003 -5.804371e-001 2.951525e+000 122 108 89
1.048561e-001 -5.679013e-001 3.002490e+000 119 108 83
6.806858e-002 -5.690612e-001 2.964505e+000 130 115 92
2.732297e-002 -5.716237e-001 2.925340e+000 118 105 86
1.695106e-001 -5.587697e-001 3.051021e+000 130 114 91
-1.011830e-002 -5.633147e-001 2.891298e+000 125 109 90
-1.648874e-004 -5.690767e-001 2.876763e+000 124 109 86
5.247526e-002 -5.588957e-001 2.916597e+000 117 106 88
5.247526e-002 -5.588957e-001 2.916597e+000 117 106 88
1.013023e-002 -5.586074e-001 2.880296e+000 128 113 93
8.521623e-002 -5.602733e-001 2.926351e+000 126 110 85
2.979861e-002 -5.395375e-001 2.840641e+000 125 108 88
2.426203e-002 -5.392705e-001 2.836434e+000 115 100 79
-4.698292e-002 -5.407339e-001 2.779560e+000 49 38 20
1.690679e-001 -5.341605e-001 2.957182e+000 58 43 24
1.690679e-001 -5.341605e-001 2.957182e+000 58 43 24
-1.491545e-002 -5.388076e-001 2.801331e+000 127 111 89
2.000004e-001 -5.293864e-001 2.981898e+000 123 111 89
1.586005e-001 -5.195181e-001 2.905720e+000 122 107 86
1.075614e-001 -4.971284e-001 2.803776e+000 127 107 80
1.832133e-001 -4.845334e-001 2.844536e+000 116 100 76
2.731646e-001 -4.749147e-001 2.912916e+000 122 106 83
1.840551e-001 -4.782777e-001 2.832750e+000 122 107 88
2.746215e-001 -4.621048e-001 2.891733e+000 47 36 19
2.746215e-001 -4.621048e-001 2.891733e+000 47 36 19
1.174755e-001 -4.673662e-001 2.743254e+000 45 32 15
2.664371e-001 -4.598166e-001 2.871289e+000 123 108 81
2.545075e-001 -4.608862e-001 2.857618e+000 127 112 85
1.157074e-001 -4.636596e-001 2.736533e+000 121 106 82
1.074542e-001 -4.643123e-001 2.727393e+000 121 105 80
1.074542e-001 -4.643123e-001 2.727393e+000 121 105 80
1.168774e-001 -4.569843e-001 2.722560e+000 117 100 78
1.168774e-001 -4.569843e-001 2.722560e+000 117 100 78
1.531813e-001 -4.419862e-001 2.742231e+000 120 101 77
6.947453e-002 -4.479990e-001 2.657960e+000 117 101 82
6.947453e-002 -4.479990e-001 2.657960e+000 117 101 82
1.718890e-001 -4.375881e-001 2.738068e+000 122 107 83
2.843807e-001 -4.262612e-001 2.829810e+000 119 103 84
2.379584e-001 -4.286993e-001 2.785586e+000 112 98 77
2.660618e-001 -4.241325e-001 2.803146e+000 117 102 81
2.660618e-001 -4.241325e-001 2.803146e+000 117 102 81
1.898437e-001 -4.258019e-001 2.730550e+000 118 103 81
1.898437e-001 -4.258019e-001 2.730550e+000 118 103 81
6.852867e-002 -4.250628e-001 2.631134e+000 122 110 88
2.713869e-001 -4.174552e-001 2.797200e+000 115 100 80
3.194623e-001 -4.139710e-001 2.836632e+000 116 104 82
2.370417e-001 -4.131463e-001 2.759801e+000 59 44 25
2.370417e-001 -4.131463e-001 2.759801e+000 59 44 25
1.514432e-001 -4.167613e-001 2.682260e+000 107 94 76
1.514432e-001 -4.167613e-001 2.682260e+000 107 94 76
1.996530e-001 -4.104213e-001 2.718143e+000 119 101 76
1.911884e-001 -4.098401e-001 2.712175e+000 123 106 87
2.717561e-001 -7.587363e-001 3.460083e+000 199 213 222
2.187679e-001 -7.435446e-001 3.415306e+000 188 203 212
-7.068022e-002 -6.776194e-001 3.149541e+000 175 190 197
8.603990e-002 -6.209427e-001 3.272653e+000 71 63 43
8.902420e-002 -6.231410e-001 3.260812e+000 138 127 110
8.902420e-002 -6.231410e-001 3.260812e+000 138 127 110
8.532273e-002 -6.186843e-001 3.232425e+000 135 126 104
8.532273e-002 -6.186843e-001 3.232425e+000 135 126 104
1.731213e-001 -6.100391e-001 3.314599e+000 72 62 52
1.106202e-001 -6.135927e-001 3.252748e+000 65 55 42
-1.326877e-002 -6.243964e-001 3.134286e+000 128 118 103
-1.326877e-002 -6.243964e-001 3.134286e+000 128 118 103
9.412056e-003 -6.208178e-001 3.154536e+000 82 69 51
-2.762028e-002 -6.224067e-001 3.116277e+000 63 51 36
1.475776e-001 -6.102054e-001 3.269408e+000 122 117 101
-4.183866e-002 -6.179450e-001 3.071602e+000 71 58 41
1.921198e-001 -5.814524e-001 3.281230e+000 135 120 100
-3.516930e-002 -6.122746e-001 3.034569e+000 135 119 95
-7.052709e-002 -6.083673e-001 2.973234e+000 130 115 96
-5.811051e-002 -5.964370e-001 2.957875e+000 137 122 103
1.732111e-001 -5.801756e-001 3.143226e+000 119 106 88
2.632241e-001 -5.777362e-001 3.215920e+000 73 61 45
2.216316e-001 -5.784198e-001 3.179733e+000 61 49 33
-8.009690e-003 -5.887005e-001 2.968903e+000 132 117 98
1.230140e-001 -5.808262e-001 3.078419e+000 133 120 100
1.230140e-001 -5.808262e-001 3.078419e+000 133 120 100
2.075886e-001 -5.733118e-001 3.138914e+000 127 115 99
2.793232e-001 -5.678992e-001 3.203789e+000 128 117 99
1.959519e-001 -5.728933e-001 3.128519e+000 117 109 94
1.855337e-001 -5.687212e-001 3.108271e+000 125 111 90
1.169945e-002 -5.720772e-001 2.914636e+000 122 107 88
1.169945e-002 -5.720772e-001 2.914636e+000 122 107 88
-5.781899e-002 -5.707189e-001 2.853671e+000 132 118 97
1.105987e-001 -5.639029e-001 2.994070e+000 122 111 89
1.627536e-002 -5.415267e-001 2.825748e+000 129 114 93
1.125924e-001 -5.337260e-001 2.900705e+000 58 42 24
1.509973e-001 -5.313180e-001 2.928634e+000 59 45 22
2.348857e-001 -5.256708e-001 3.002171e+000 128 113 91
2.057911e-001 -5.247639e-001 2.977963e+000 123 109 86
-4.096116e-003 -5.359970e-001 2.792415e+000 50 33 13
9.713467e-002 -5.303926e-001 2.873233e+000 117 105 81
-2.286670e-002 -5.298210e-001 2.767011e+000 56 41 27
1.275476e-001 -5.150962e-001 2.860151e+000 42 29 7
4.165123e-003 -5.138320e-001 2.741684e+000 55 42 25
4.165123e-003 -5.138320e-001 2.741684e+000 55 42 25
-1.159742e-003 -5.136401e-001 2.736318e+000 47 34 18
7.531324e-002 -4.991012e-001 2.769957e+000 40 29 17
7.531324e-002 -4.991012e-001 2.769957e+000 40 29 17
8.373521e-002 -4.986408e-001 2.776781e+000 35 27 17
8.179097e-002 -4.953567e-001 2.760407e+000 53 41 24
1.786121e-001 -4.890960e-001 2.845541e+000 52 36 21
1.786121e-001 -4.890960e-001 2.845541e+000 52 36 21
1.937900e-001 -4.839505e-001 2.853115e+000 116 101 79
9.237032e-002 -4.885912e-001 2.764649e+000 40 32 16
3.236958e-001 -4.751678e-001 2.966559e+000 65 52 38
3.236958e-001 -4.751678e-001 2.966559e+000 65 52 38
4.595686e-002 -4.839593e-001 2.714910e+000 56 44 28
4.595686e-002 -4.839593e-001 2.714910e+000 56 44 28
2.724475e-001 -4.713363e-001 2.907340e+000 43 35 18
2.724475e-001 -4.713363e-001 2.907340e+000 43 35 18
2.034149e-001 -4.761844e-001 2.843865e+000 120 107 89
2.034149e-001 -4.761844e-001 2.843865e+000 120 107 89
2.330058e-001 -4.713007e-001 2.867614e+000 129 117 95
2.330058e-001 -4.713007e-001 2.867614e+000 129 117 95
1.345291e-001 -4.706036e-001 2.765126e+000 119 106 81
2.720422e-001 -4.630965e-001 2.885674e+000 130 113 98
4.441637e-002 -4.740667e-001 2.682383e+000 48 34 15
3.774410e-002 -4.728316e-001 2.677053e+000 53 40 23
5.083924e-002 -4.688321e-001 2.684647e+000 110 97 75
5.083924e-002 -4.688321e-001 2.684647e+000 110 97 75
1.790457e-001 -4.511786e-001 2.776935e+000 37 26 9
1.790457e-001 -4.511786e-001 2.776935e+000 37 26 9
1.711832e-001 -4.534390e-001 2.765922e+000 37 29 10
5.107518e-002 -4.521530e-001 2.656971e+000 49 36 19
7.471434e-002 -4.439038e-001 2.659514e+000 54 42 24
5.977226e-002 -4.422841e-001 2.642501e+000 50 39 18
6.159201e-002 -4.372459e-001 2.642122e+000 110 99 78
6.159201e-002 -4.372459e-001 2.642122e+000 110 99 78
2.458721e-001 -4.298085e-001 2.791620e+000 121 109 86
1.960130e-001 -4.306208e-001 2.749048e+000 120 105 84
2.578615e-001 -4.253798e-001 2.796369e+000 118 106 83
1.348244e-001 -4.298821e-001 2.692926e+000 51 37 24
3.344553e-001 -4.235947e-001 2.857917e+000 49 37 21
2.103704e-001 -4.273028e-001 2.751936e+000 51 39 21
6.285281e-002 -4.290967e-001 2.632275e+000 50 36 21
2.836627e-001 -4.212033e-001 2.811148e+000 54 40 28
2.836627e-001 -4.212033e-001 2.811148e+000 54 40 28
8.866002e-002 -4.235597e-001 2.638695e+000 62 46 26
2.775020e-001 -4.144548e-001 2.796842e+000 55 39 22
2.652258e-001 -4.172108e-001 2.783055e+000 50 37 16
1.416902e-001 -4.189868e-001 2.681806e+000 109 98 78
7.981112e-002 -4.221409e-001 2.627905e+000 116 100 77
1.913174e-001 -4.160935e-001 2.714845e+000 62 45 26
1.608412e-001 -4.129747e-001 2.689277e+000 49 35 18
1.608412e-001 -4.129747e-001 2.689277e+000 49 35 18
1.495236e-001 -4.106952e-001 2.678113e+000 43 31 12
1.495236e-001 -4.106952e-001 2.678113e+000 43 31 12
-1.294955e-001 2.255439e-001 3.041166e+000 45 42 31
-2.987617e-003 -9.866805e-002 2.767920e+000 130 113 93
-3.744636e-002 -2.191908e-001 2.650467e+000 124 108 85
-2.125852e-002 -1.817834e-001 2.688792e+000 121 113 102
-5.953133e-002 -1.557418e-001 2.680880e+000 128 114 88
3.706830e-001 -1.212305e-001 2.984994e+000 94 80 70
3.706830e-001 -1.212305e-001 2.984994e+000 94 80 70
-1.060602e-001 -6.740566e-002 2.737256e+000 128 116 94
-1.185781e-001 2.427032e-001 3.071293e+000 104 101 90
4.012551e-001 -6.494503e-001 3.496221e+000 190 203 210
4.508663e-001 -1.762414e-001 2.984405e+000 99 87 71
4.508663e-001 -1.762414e-001 2.984405e+000 99 87 71
4.364410e-001 -1.451126e-001 3.006423e+000 133 122 104
1.436744e-001 -1.101876e-001 2.850752e+000 56 48 37
3.114352e-001 -1.917685e-002 3.062446e+000 102 90 74
3.949437e-002 2.392821e-002 2.915756e+000 133 117 94
1.540899e-001 -2.477342e-001 2.734558e+000 46 42 33
2.072236e-001 -1.920532e-001 2.804425e+000 48 45 40
-2.831426e-002 -1.534348e-001 2.702299e+000 136 120 94
1.699739e-001 -1.155676e-001 2.855247e+000 45 43 38
9.694131e-003 -6.830624e-002 2.804675e+000 51 47 36
9.718584e-002 2.403000e-002 2.949504e+000 42 40 35
-6.844974e-002 9.576866e-002 2.917696e+000 46 42 34
-2.772895e-002 1.306291e-001 2.984531e+000 128 112 89
-5.259599e-002 1.506192e-001 3.002636e+000 47 44 36
-9.894161e-002 1.844924e-001 3.002880e+000 128 117 96
-3.434664e-001 4.090837e-001 3.140687e+000 128 113 89
4.862291e-001 -2.314152e-001 2.943664e+000 60 50 40
2.158581e-001 -2.096320e-001 2.794512e+000 51 49 44
1.750801e-001 -2.053160e-001 2.770208e+000 48 46 43
9.030964e-002 -1.431409e-001 2.784023e+000 136 124 101
9.566239e-002 -1.129664e-001 2.815124e+000 52 43 37
2.636865e-003 -4.338572e-002 2.826641e+000 50 44 35
2.636865e-003 -4.338572e-002 2.826641e+000 50 44 35
-9.903698e-002 -3.968575e-002 2.769818e+000 54 48 38
1.017207e-001 -2.686575e-002 2.906160e+000 58 51 41
3.580553e-002 -1.487756e-002 2.873111e+000 46 45 41
-3.039612e-002 4.876038e-002 2.899472e+000 130 118 95
-9.358404e-003 8.028125e-002 2.948869e+000 50 42 35
-4.353047e-002 9.405862e-002 2.941018e+000 50 50 42
-4.353047e-002 9.405862e-002 2.941018e+000 50 50 42
2.448958e-001 -4.835302e-001 3.506436e+000 175 185 194
-1.777442e-003 -2.350871e-001 2.645980e+000 122 110 94
-2.053822e-003 -2.377501e-001 2.647191e+000 122 110 94
9.771824e-002 -2.057089e-001 2.733949e+000 54 53 41
9.478182e-002 -2.087592e-001 2.736590e+000 54 53 41
1.163638e-001 -1.848372e-001 2.758486e+000 52 39 32
1.086294e-001 -1.546959e-001 2.782462e+000 46 41 35
5.562276e-002 -1.563058e-001 2.750376e+000 131 114 97
5.562276e-002 -1.563058e-001 2.750376e+000 131 114 97
6.172505e-003 -5.336528e-002 2.817901e+000 42 41 34
3.618005e-001 -3.303836e-002 3.081323e+000 70 59 42
-4.247364e-002 1.714629e-002 2.860749e+000 49 43 38
-6.427480e-002 5.828012e-002 2.889522e+000 52 45 33
-6.292865e-002 6.022882e-002 2.887447e+000 52 45 33
-5.395563e-002 1.210840e-001 2.964089e+000 132 116 100
-5.395563e-002 1.210840e-001 2.964089e+000 132 116 100
-8.355999e-002 1.250751e-001 2.950235e+000 50 42 30
-6.388761e-002 1.384769e-001 2.969992e+000 51 48 35
-6.388761e-002 1.384769e-001 2.969992e+000 51 48 35
-4.547433e-002 1.424995e-001 2.996128e+000 49 42 32
-1.637119e-001 2.282269e-001 3.022845e+000 50 43 34
2.642623e-001 -5.292349e-001 3.492706e+000 179 189 199
3.924604e-001 -1.637893e-001 2.954718e+000 129 116 99
4.437343e-001 -1.589779e-001 3.003882e+000 133 120 103
-4.602259e-003 -1.659397e-001 2.701551e+000 45 37 22
-3.783022e-002 -1.680388e-001 2.680793e+000 52 45 31
6.496527e-002 -1.324630e-001 2.768752e+000 51 45 38
8.094935e-002 -1.301928e-001 2.787394e+000 48 46 36
5.676824e-002 -1.243616e-001 2.778905e+000 122 112 97
6.354698e-002 -1.219317e-001 2.785872e+000 50 43 33
4.695447e-002 -1.232201e-001 2.775353e+000 47 42 33
5.525165e-002 -1.075016e-001 2.792785e+000 50 38 28
7.039704e-002 -9.170162e-002 2.819273e+000 49 40 33
7.076016e-002 -9.288072e-002 2.819671e+000 49 40 33
-6.459056e-002 -9.242839e-002 2.733632e+000 124 114 97
3.850649e-001 -6.931696e-002 3.059700e+000 136 124 109
3.850649e-001 -6.931696e-002 3.059700e+000 136 124 109
-8.312313e-002 -7.965719e-002 2.741367e+000 42 34 21
2.640071e-002 -6.575361e-002 2.809464e+000 52 47 44
1.920443e-002 -5.656729e-002 2.819289e+000 120 108 89
1.724057e-002 -5.031048e-002 2.821316e+000 122 109 94
1.547314e-002 -5.175152e-002 2.824411e+000 122 109 94
-8.918089e-002 -5.715896e-002 2.752174e+000 46 44 32
3.287313e-002 -5.051441e-002 2.837905e+000 139 133 116
3.287313e-002 -5.051441e-002 2.837905e+000 139 133 116
7.475099e-003 -2.139123e-002 2.847681e+000 52 46 37
-7.403437e-003 -1.760101e-002 2.848026e+000 127 113 94
-9.359786e-002 -1.189473e-002 2.795554e+000 128 116 100
-9.265931e-002 -1.033648e-002 2.793604e+000 128 116 100
-1.540322e-002 4.750704e-004 2.859032e+000 130 119 99
1.013074e-002 1.213562e-002 2.881311e+000 121 110 99
1.013074e-002 1.213562e-002 2.881311e+000 121 110 99
-1.593391e-002 5.448117e-002 2.906361e+000 50 39 26
-4.997228e-002 7.045870e-002 2.900728e+000 51 43 32
-4.419446e-002 7.830146e-002 2.920526e+000 45 42 34
-3.289712e-002 9.416210e-002 2.949219e+000 50 46 36
-1.036696e-001 2.176209e-001 3.045579e+000 47 38 31
-1.473612e-001 2.319349e-001 3.028359e+000 48 42 33
-1.202600e-001 2.497294e-001 3.075666e+000 52 46 32
-2.388065e-001 3.495037e-001 3.127412e+000 51 40 33
-1.400305e-002 -2.533256e-001 2.642469e+000 46 34 21
6.508484e-003 -1.918589e-001 2.681342e+000 51 43 29
6.508484e-003 -1.918589e-001 2.681342e+000 51 43 29
2.467975e-003 -1.814846e-001 2.694937e+000 48 37 22
8.600236e-002 -1.146187e-001 2.805620e+000 121 115 101
4.095620e-001 -9.118275e-002 3.042356e+000 135 120 102
4.095620e-001 -9.118275e-002 3.042356e+000 135 120 102
3.574445e-002 -1.023223e-001 2.784780e+000 136 124 107
-4.761352e-002 -7.459037e-002 2.759868e+000 42 30 15
-4.761352e-002 -7.459037e-002 2.759868e+000 42 30 15
-9.714525e-002 -5.434400e-002 2.746282e+000 115 103 84
-6.616155e-002 -3.530785e-002 2.785095e+000 62 49 33
-6.596813e-002 -3.378991e-002 2.782722e+000 62 49 33
-7.797501e-002 -1.713878e-002 2.797175e+000 40 25 6
-9.791099e-002 -2.405918e-003 2.797751e+000 37 28 14
-9.805512e-002 -2.938443e-003 2.798236e+000 37 28 14
2.784144e-001 3.954684e-002 3.086186e+000 71 58 42
-3.908356e-002 1.062325e-001 2.950051e+000 128 118 105
7.989321e-002 1.211663e-001 3.036529e+000 63 51 37
7.989321e-002 1.211663e-001 3.036529e+000 63 51 37
9.412005e-002 1.218977e-001 3.071279e+000 56 44 31
-9.421728e-002 1.836763e-001 3.019568e+000 133 121 103
-1.379729e-001 2.063876e-001 3.020741e+000 34 28 20
-1.056509e-001 2.309401e-001 3.058890e+000 46 40 32
-1.359550e-001 2.538994e-001 3.069614e+000 55 47 29
-1.359550e-001 2.538994e-001 3.069614e+000 55 47 29
-1.523441e-001 2.496640e-001 3.061488e+000 52 40 29
-7.718342e-002 3.693750e-001 3.281932e+000 53 44 36
-8.796885e-002 4.916293e-001 3.455151e+000 132 124 109
-6.581240e-002 4.951815e-001 3.484863e+000 48 39 24
-4.814931e-002 8.568004e-002 2.937792e+000 55 52 47
1.142526e-001 -1.292289e-001 2.812849e+000 138 122 106
1.975467e-001 -2.362751e-001 2.747704e+000 54 54 49
2.781313e-001 3.012548e-002 3.100914e+000 95 85 74
2.785690e-001 3.109355e-002 3.100252e+000 95 85 74
4.310022e-001 -1.476535e-001 3.009707e+000 134 125 110
-3.145703e-001 3.731052e-001 3.087899e+000 59 56 46
3.567927e-003 -1.590121e-002 2.857547e+000 58 54 51
3.567927e-003 -1.590121e-002 2.857547e+000 58 54 51
3.273311e-002 -6.595491e-002 2.819862e+000 60 63 57
-4.596418e-002 9.268575e-002 2.942493e+000 54 54 48
-2.849543e-002 5.253410e-002 2.918596e+000 55 56 51
1.025503e-001 -1.788262e-001 2.751030e+000 139 125 109
9.296832e-002 -4.951161e-002 2.878043e+000 54 53 53
7.471556e-002 1.512383e-002 2.933570e+000 108 99 90
-6.937529e-002 -1.015690e-001 2.725388e+000 57 55 51
-1.699466e-001 2.131525e-001 3.013887e+000 141 131 114
-3.793052e-002 3.279262e-002 2.885142e+000 57 56 52
-4.815713e-002 1.230614e-001 2.979364e+000 53 53 48
-1.054004e-001 2.270079e-001 3.070086e+000 55 55 49
-2.932981e-002 1.073452e-001 2.975002e+000 62 62 54
3.981770e-002 -2.211348e-003 2.890354e+000 144 132 116
-6.604925e-002 -9.458298e-002 2.735229e+000 128 118 105
-3.778826e-001 4.708150e-001 3.178294e+000 133 124 105
3.782746e-003 -6.892736e-002 2.800447e+000 57 53 48
3.782746e-003 -6.892736e-002 2.800447e+000 57 53 48
2.152019e-002 -8.203556e-002 2.798645e+000 53 52 47
4.052383e-002 -1.090559e-001 2.782067e+000 62 53 44
-8.000839e-003 9.719521e-004 2.868395e+000 56 53 47
-7.692084e-003 1.108787e-003 2.867957e+000 56 53 47
2.603707e-002 -5.507401e-002 2.828567e+000 52 51 49
3.740952e-002 -5.588761e-002 2.831628e+000 136 129 116
-2.575418e-002 6.587363e-002 2.930694e+000 142 131 117
4.400549e-002 -5.243404e-002 2.841218e+000 56 51 48
-3.535742e-002 9.086770e-002 2.951684e+000 59 54 49
-3.565201e-002 1.025534e-001 2.958216e+000 136 130 111
2.040327e-002 2.717758e-002 2.911430e+000 59 56 47
-5.018219e-002 4.897903e-001 3.485991e+000 69 65 54
3.562493e-001 -1.226150e-001 2.987693e+000 74 67 54
-8.964561e-002 1.563155e-002 2.812915e+000 66 60 47
-1.691834e-001 2.374966e-001 3.028628e+000 55 53 49
2.682353e-002 -9.643106e-002 2.788780e+000 63 54 47
2.682353e-002 -9.643106e-002 2.788780e+000 63 54 47
-4.890567e-002 4.374724e-002 2.896637e+000 63 55 47
4.061038e-002 -1.087184e-001 2.782105e+000 61 52 43
-8.448709e-002 1.410625e-001 2.979768e+000 137 130 113
-8.448709e-002 1.410625e-001 2.979768e+000 137 130 113
-3.272062e-002 6.668286e-002 2.920065e+000 62 55 45
8.468388e-002 -1.515931e-001 2.764437e+000 128 122 109
-9.045605e-002 1.886762e-001 3.026606e+000 143 131 114
-1.139674e-001 2.384814e-001 3.066296e+000 125 122 107
-1.149789e-001 2.362677e-001 3.067921e+000 125 122 107
-2.383649e-003 5.361547e-002 2.924501e+000 134 123 103
-4.037680e-002 1.158869e-001 2.977946e+000 133 124 113
1.146221e-001 -1.724653e-001 2.763956e+000 136 130 118
-1.405187e-001 3.486419e-001 3.201704e+000 144 133 111
2.777426e-001 1.086603e-004 3.087671e+000 144 135 118
-7.631322e-002 -5.844800e-002 2.764268e+000 57 53 46
-5.792832e-002 -9.590067e-002 2.738491e+000 118 114 103
-3.023252e-001 3.619218e-001 3.087406e+000 59 49 37
-7.472533e-002 8.187098e-002 2.917805e+000 123 117 107
-7.472533e-002 8.187098e-002 2.917805e+000 123 117 107
-1.350423e-001 2.131625e-001 3.026241e+000 123 119 107
-1.350423e-001 2.131625e-001 3.026241e+000 123 119 107
5.162024e-002 -9.960704e-002 2.797050e+000 134 126 113
-1.274679e-001 2.326174e-001 3.048322e+000 53 48 43
-1.839667e-002 4.301153e-002 2.906843e+000 131 124 108
9.433764e-002 -6.702210e-002 2.858415e+000 128 123 107
1.470377e-001 -1.273419e-001 2.832792e+000 58 56 47
1.470377e-001 -1.273419e-001 2.832792e+000 58 56 47
1.604181e-001 -1.251266e-001 2.837735e+000 60 56 47
1.921259e-001 -1.879278e-001 2.800334e+000 58 55 46
-4.101223e-002 3.549445e-001 3.281640e+000 57 47 38
-4.101223e-002 3.549445e-001 3.281640e+000 57 47 38
-1.638857e-002 4.924405e-001 3.514516e+000 73 63 51
-1.638857e-002 4.924405e-001 3.514516e+000 73 63 51
2.150644e-001 -2.297053e-001 2.763432e+000 43 44 38
2.150644e-001 -2.297053e-001 2.763432e+000 43 44 38
-6.004670e-002 4.611963e-001 3.496701e+000 130 124 113
1.108125e-001 -2.159073e-001 2.715685e+000 48 47 42
1.544187e-001 -1.924429e-001 2.765864e+000 135 120 100
8.257732e-002 5.684162e-002 2.970148e+000 48 46 43
-1.320363e-001 1.929535e-001 3.005538e+000 46 41 35
-5.309535e-002 1.213950e-001 2.963521e+000 125 114 97
-5.309535e-002 1.213950e-001 2.963521e+000 125 114 97
-3.190199e-001 4.024505e-001 3.141623e+000 125 115 95
-3.190199e-001 4.024505e-001 3.141623e+000 125 115 95
3.221458e-002 -8.176587e-002 2.802851e+000 125 114 101
3.221458e-002 -8.176587e-002 2.802851e+000 125 114 101
5.810477e-002 -1.231400e-001 2.778041e+000 124 117 99
-4.875469e-002 8.656292e-002 2.927413e+000 118 107 92
-4.875469e-002 8.656292e-002 2.927413e+000 118 107 92
-5.734746e-002 1.035634e-001 2.939445e+000 129 122 106
4.615202e-002 -7.647355e-002 2.820428e+000 125 117 104
-4.056637e-002 1.041509e-001 2.951579e+000 122 112 96
8.855002e-002 1.046617e-001 3.051829e+000 45 37 24
8.855002e-002 1.046617e-001 3.051829e+000 45 37 24
3.849387e-001 -1.681947e-001 2.961306e+000 135 126 109
-6.680842e-002 -3.516326e-002 2.784151e+000 60 48 34
-5.452619e-002 8.767684e-002 2.920324e+000 115 102 87
-5.452619e-002 8.767684e-002 2.920324e+000 115 102 87
1.892995e-001 -1.924255e-001 2.805704e+000 48 45 35
1.892995e-001 -1.924255e-001 2.805704e+000 48 45 35
1.682555e-002 1.553288e-001 3.066352e+000 55 42 33
-4.018168e-002 3.484034e-001 3.272941e+000 62 49 35
-2.833147e-002 3.777428e-001 3.321016e+000 55 43 27
-2.833147e-002 3.777428e-001 3.321016e+000 55 43 27
-7.675518e-003 3.732943e-001 3.356726e+000 60 49 40
9.900175e-003 3.690763e-001 3.338351e+000 53 41 29
5.482827e-003 3.683005e-001 3.343169e+000 53 41 29
-6.071033e-002 4.854285e-001 3.485788e+000 122 114 101
-6.071033e-002 4.854285e-001 3.485788e+000 122 114 101
2.947722e-002 4.577878e-001 3.529229e+000 51 42 27
-3.277557e-001 4.373510e-001 3.164950e+000 131 118 99
-7.448056e-002 3.939518e-001 3.303283e+000 49 39 28
3.554428e-001 -5.320079e-003 3.099869e+000 135 123 107
-4.652470e-002 8.761627e-002 2.936654e+000 47 43 32
2.063041e-002 9.408668e-002 2.986829e+000 130 112 90
-1.320151e-001 2.212599e-001 3.044846e+000 45 42 31
6.638866e-002 -1.326338e-001 2.775292e+000 44 41 32
1.305809e-001 -8.220979e-002 2.874013e+000 46 46 38
2.861602e-002 -6.710103e-002 2.819922e+000 47 47 41
-4.332738e-002 -3.888874e-002 2.819000e+000 130 114 89
1.957632e-002 -2.391075e-001 2.644951e+000 127 116 103
-5.112855e-002 -1.014440e-001 2.738061e+000 50 48 36
2.301683e-002 7.547370e-002 2.961457e+000 132 115 95
-4.740998e-002 1.759169e-001 3.033772e+000 131 115 93
3.041623e-002 3.839160e-001 3.369666e+000 123 116 100
-9.862173e-002 1.553004e-001 2.979657e+000 45 46 38
-5.068677e-002 4.794626e-001 3.477814e+000 120 114 102
-5.076013e-002 4.855691e-001 3.477100e+000 120 114 102
-8.911227e-002 2.069339e-001 3.038835e+000 64 61 53
-1.188956e-001 2.424346e-001 3.071476e+000 104 101 90
4.738662e-001 -2.009515e-001 2.959861e+000 96 87 72
4.738662e-001 -2.009515e-001 2.959861e+000 96 87 72
1.374678e-001 -6.360455e-002 2.892156e+000 44 43 38
3.265562e-001 -5.203607e-002 3.040762e+000 111 99 85
1.060508e-001 -4.555612e-002 2.898149e+000 65 57 42
1.060508e-001 -4.555612e-002 2.898149e+000 65 57 42
3.675611e-001 -3.916498e-002 3.088457e+000 104 94 81
3.662022e-001 -3.950691e-002 3.089237e+000 104 94 81
3.092332e-001 -2.276724e-002 3.062457e+000 102 90 74
3.487032e-001 -1.071253e-002 3.107272e+000 148 136 120
3.487032e-001 -1.071253e-002 3.107272e+000 148 136 120
6.992735e-002 -2.285662e-003 2.911679e+000 41 39 36
-1.123716e-001 -4.072595e-003 2.792359e+000 68 65 56
-1.739059e-001 7.932689e-003 2.782402e+000 3 2 0
-1.739059e-001 7.932689e-003 2.782402e+000 3 2 0
1.345296e-001 -1.280995e-001 2.823979e+000 47 46 40
9.295465e-002 -1.272460e-001 2.796995e+000 47 41 39
5.260828e-002 -6.626604e-002 2.833907e+000 46 47 42
-7.020787e-002 -7.180502e-002 2.753430e+000 131 115 97
2.372713e-002 -2.720202e-002 2.855077e+000 126 111 89
2.386568e-002 -2.675567e-002 2.854580e+000 126 111 89
2.259443e-002 8.879384e-003 2.894908e+000 53 46 40
-3.011613e-002 1.892272e-002 2.867185e+000 46 46 42
-5.193039e-002 5.891121e-002 2.896072e+000 41 40 35
-6.773030e-002 1.225198e-001 2.959778e+000 132 115 95
-1.021604e-001 1.809847e-001 3.004817e+000 128 117 96
-6.981861e-002 3.534092e-001 3.261841e+000 133 115 92
-3.169879e-001 3.785084e-001 3.110838e+000 126 114 92
-3.929489e-001 4.802995e-001 3.202508e+000 129 114 91
4.309354e-001 -2.374326e-001 2.912342e+000 55 50 42
4.309354e-001 -2.374326e-001 2.912342e+000 55 50 42
3.062574e-002 -2.490735e-001 2.648448e+000 52 47 38
1.012256e-001 -2.315642e-001 2.704468e+000 127 113 96
1.012256e-001 -2.315642e-001 2.704468e+000 127 113 96
4.691755e-001 -2.284307e-001 2.975715e+000 133 118 96
4.182677e-001 -2.231356e-001 2.925441e+000 133 121 99
1.413431e-001 -2.062095e-001 2.749972e+000 44 43 37
7.854228e-002 -1.850453e-001 2.735668e+000 128 114 95
1.435296e-001 -1.460673e-001 2.810636e+000 49 45 40
7.203783e-002 -1.328918e-001 2.780248e+000 44 41 38
3.498930e-002 -6.469083e-002 2.814863e+000 48 47 42
3.681887e-002 -6.412537e-002 2.812438e+000 48 47 42
5.166841e-002 -3.744796e-002 2.866582e+000 50 44 37
5.441823e-002 1.938633e-002 2.927255e+000 48 43 37
-4.821557e-003 4.966342e-002 2.918545e+000 126 114 89
-3.171639e-002 4.841306e-002 2.899946e+000 130 118 95
-5.584214e-002 1.075572e-001 2.955173e+000 44 41 34
