ply
format ascii 1.0
element face 0
property list uchar int vertex_indices
element vertex 893
property float x
property float y
property float z
property uchar diffuse_red
property uchar diffuse_green
property uchar diffuse_blue
end_header
1.029015e-001 -4.259441e-002 2.898296e+000 78 70 51
-1.545577e+000 9.273745e-001 3.854909e+000 88 107 121
-1.450009e+000 1.052871e+000 3.841771e+000 46 90 80
4.156765e-003 -6.405805e-001 3.257248e+000 172 183 189
-3.423028e-004 -6.218620e-001 3.166163e+000 78 68 51
-2.714340e-002 -6.240000e-001 3.127822e+000 85 76 61
-2.714340e-002 -6.240000e-001 3.127822e+000 85 76 61
-6.649758e-002 -6.242074e-001 3.108045e+000 90 82 63
-9.646314e-002 -6.263456e-001 3.072255e+000 112 102 85
-1.419396e-001 -6.265270e-001 3.028532e+000 92 84 66
-1.874654e-001 -6.148303e-001 3.045617e+000 85 79 63
-1.730512e-001 -6.290391e-001 2.995178e+000 90 83 65
-4.261458e-001 -6.392398e-001 2.824950e+000 131 124 105
1.448057e-002 -5.406669e-001 2.868440e+000 129 114 93
5.738753e-002 -4.694914e-001 2.709036e+000 123 106 81
5.738753e-002 -4.694914e-001 2.709036e+000 123 106 81
8.576115e-002 -4.520826e-001 2.674240e+000 123 106 80
3.697196e-001 -4.367052e-001 2.829773e+000 126 109 84
1.136398e-001 -4.336498e-001 2.632677e+000 129 112 86
-8.310175e-002 1.618739e-001 2.995174e+000 65 63 52
-1.383620e+000 8.886171e-001 3.957314e+000 123 132 149
-1.912763e+000 9.585736e-001 3.672144e+000 143 160 171
-1.721072e+000 9.881694e-001 3.803791e+000 134 162 183
-1.433296e+000 9.836525e-001 3.859268e+000 3 37 14
-1.450086e+000 1.012192e+000 3.831821e+000 9 60 33
-1.450086e+000 1.012192e+000 3.831821e+000 9 60 33
-6.097939e-002 -6.588484e-001 3.149725e+000 164 176 184
-1.512400e-001 -6.150593e-001 3.076120e+000 95 84 66
-1.541598e-001 -6.167076e-001 2.981069e+000 134 121 102
-4.132401e-002 -5.784044e-001 2.978048e+000 125 114 96
2.138557e-001 -5.610298e-001 3.154478e+000 87 74 58
-4.409274e-002 -5.678462e-001 2.947037e+000 123 113 95
-9.514556e-002 -5.648023e-001 2.889670e+000 129 118 96
-1.415196e-002 -5.589784e-001 2.937529e+000 120 111 94
1.562800e-001 -5.476532e-001 3.051031e+000 91 79 66
-6.195510e-002 -5.481921e-001 2.838301e+000 126 112 90
-4.502852e-002 -5.382995e-001 2.813983e+000 130 116 91
1.619080e-001 -5.193141e-001 2.948908e+000 128 113 92
1.035649e-002 -5.040479e-001 2.781418e+000 126 110 84
1.137919e-001 -4.712443e-001 2.770582e+000 124 109 86
1.090075e-001 -2.415893e-001 2.686261e+000 147 136 112
1.090075e-001 -2.415893e-001 2.686261e+000 147 136 112
1.921809e-002 -2.440373e-001 2.607495e+000 145 136 107
1.258398e-001 -1.705233e-001 2.762938e+000 62 57 47
-1.625985e-002 -1.464589e-001 2.696517e+000 154 142 119
7.800595e-002 -1.349506e-001 2.772743e+000 65 62 53
-1.916103e-003 -3.632362e-002 2.840550e+000 67 63 50
-4.349600e-002 1.479785e-001 3.011026e+000 71 64 54
-1.389069e-001 2.171370e-001 3.018486e+000 160 148 125
-1.995092e+000 9.911548e-001 3.619854e+000 124 156 177
-1.422128e+000 9.862846e-001 3.872900e+000 79 109 103
-1.426239e+000 1.033988e+000 3.853700e+000 97 133 126
2.840943e-001 -7.668754e-001 3.429384e+000 197 210 219
1.724184e-001 -7.307917e-001 3.339964e+000 188 205 213
1.805166e-001 -7.355696e-001 3.328125e+000 188 205 213
3.015421e-001 -6.251974e-001 3.479506e+000 163 174 180
-3.149391e-002 -6.468797e-001 3.192117e+000 166 176 185
8.630881e-002 -6.249819e-001 3.249974e+000 119 110 93
-3.932435e-002 -6.212131e-001 3.108630e+000 74 62 46
2.210418e-002 -6.133625e-001 3.153208e+000 127 116 97
-1.400258e-001 -6.058186e-001 2.958931e+000 135 124 105
-8.156537e-002 -6.003777e-001 3.008577e+000 81 74 56
2.744541e-001 -5.615280e-001 3.233502e+000 126 114 93
1.094215e-001 -5.681705e-001 3.076872e+000 127 114 95
2.614629e-002 -5.687886e-001 3.020218e+000 80 68 54
1.834218e-001 -5.624147e-001 3.128711e+000 74 66 49
1.243936e-001 -5.613615e-001 3.081251e+000 75 62 45
-3.556169e-002 -5.718410e-001 2.937443e+000 122 114 95
9.182484e-002 -5.575751e-001 3.042550e+000 82 70 54
8.074937e-002 -5.601337e-001 3.026452e+000 79 66 50
2.971556e-002 -5.385710e-001 2.903457e+000 95 84 66
4.142146e-004 -5.432470e-001 2.863022e+000 99 88 70
1.035236e-001 -5.195039e-001 2.890934e+000 125 110 89
6.971502e-002 -5.086492e-001 2.835092e+000 124 109 90
1.009454e-001 -4.847626e-001 2.792609e+000 125 110 89
1.994248e-002 -4.631272e-001 2.692022e+000 121 105 82
1.588362e-001 -4.514055e-001 2.713463e+000 119 107 84
1.588362e-001 -4.514055e-001 2.713463e+000 119 107 84
5.590775e-002 -4.517058e-001 2.637696e+000 125 111 87
8.852257e-002 -4.309176e-001 2.587858e+000 121 107 81
8.852257e-002 -4.309176e-001 2.587858e+000 121 107 81
1.806339e-002 -2.315696e-001 2.625974e+000 71 60 52
7.146841e-002 -1.448895e-001 2.764242e+000 146 139 118
7.146841e-002 -1.448895e-001 2.764242e+000 146 139 118
7.146841e-002 -1.448895e-001 2.764242e+000 146 139 118
-4.149313e-002 -8.089643e-002 2.748635e+000 149 140 117
3.272584e-002 -4.796058e-002 2.845734e+000 157 147 122
-4.084650e-003 -1.300919e-002 2.839825e+000 64 61 49
8.806503e-002 -2.981796e-003 2.931489e+000 67 62 56
-5.367788e-002 1.142212e-001 2.973409e+000 55 55 44
-6.842844e-002 1.283607e-001 2.957858e+000 71 64 50
-5.394702e-002 1.445257e-001 3.004180e+000 152 142 117
-1.007780e-001 1.855713e-001 3.013420e+000 151 146 118
-1.763018e+000 6.362410e-001 3.958136e+000 104 139 176
-1.763018e+000 6.362410e-001 3.958136e+000 104 139 176
-1.565687e+000 9.147817e-001 3.838460e+000 101 127 142
-1.755405e+000 9.830429e-001 3.777541e+000 120 153 172
4.389582e-001 -6.923636e-001 3.551779e+000 155 150 128
-1.451935e-002 -6.589356e-001 3.194733e+000 166 180 186
-1.157022e-001 -6.486073e-001 3.110861e+000 158 168 176
-6.365375e-002 -6.456242e-001 3.152577e+000 67 73 74
8.918751e-002 -6.100568e-001 3.217839e+000 124 115 98
-7.508205e-002 -6.180260e-001 3.059727e+000 132 121 103
-7.854002e-002 -6.080887e-001 3.054754e+000 87 75 59
-9.004336e-002 -6.094604e-001 3.016472e+000 130 122 104
1.435915e-001 -6.142971e-001 3.073221e+000 86 80 67
1.435915e-001 -6.142971e-001 3.073221e+000 86 80 67
1.528271e-001 -5.768564e-001 3.142482e+000 125 115 97
1.134004e-001 -5.778128e-001 3.115762e+000 91 85 72
1.166780e-001 -5.797553e-001 3.111064e+000 91 85 72
1.174142e-001 -5.749485e-001 3.097212e+000 52 46 32
1.955127e-001 -5.593124e-001 3.146752e+000 80 68 52
5.396589e-002 -5.311351e-001 2.914201e+000 127 112 91
-8.140745e-003 -5.327630e-001 2.855582e+000 129 114 93
-1.416900e-002 -5.357486e-001 2.839115e+000 124 110 87
1.140041e-001 -5.215929e-001 2.938556e+000 119 107 85
1.168911e-001 -5.206978e-001 2.911156e+000 128 113 92
6.467681e-004 -5.248569e-001 2.829758e+000 119 108 89
7.427214e-003 -5.091789e-001 2.777716e+000 129 114 91
-3.237769e-002 -5.046080e-001 2.769079e+000 123 111 89
1.225519e-003 -4.932108e-001 2.721057e+000 122 109 87
1.225519e-003 -4.932108e-001 2.721057e+000 122 109 87
1.849275e-001 -4.832813e-001 2.854117e+000 122 107 86
1.849275e-001 -4.832813e-001 2.854117e+000 122 107 86
3.318550e-002 -4.752077e-001 2.696803e+000 120 105 86
2.153530e-001 -4.662385e-001 2.815553e+000 122 107 85
2.140866e-001 -4.654733e-001 2.817376e+000 122 107 85
2.177454e-001 -4.543360e-001 2.802902e+000 124 109 86
1.674818e-001 -4.548710e-001 2.759851e+000 123 108 85
1.971051e-001 -4.495084e-001 2.735084e+000 124 108 85
1.924011e-001 -4.469221e-001 2.740137e+000 124 108 85
1.845530e-001 -4.368422e-001 2.703715e+000 117 102 81
5.007206e-001 -4.014486e-001 2.810575e+000 142 126 100
4.800157e-001 -4.024924e-001 2.793410e+000 144 128 103
5.100661e-001 -3.997690e-001 2.819374e+000 141 125 100
3.083416e-001 -3.997730e-001 2.671148e+000 133 117 93
3.909739e-001 -1.756727e-001 2.947587e+000 153 139 119
-5.614217e-002 -8.176132e-002 2.735322e+000 150 144 123
-4.803005e-002 -6.617116e-002 2.773692e+000 63 54 42
-4.803005e-002 -6.617116e-002 2.773692e+000 63 54 42
-6.238102e-002 -4.709992e-002 2.773750e+000 68 58 47
-5.695574e-002 -3.836677e-002 2.786852e+000 156 143 125
-9.749382e-003 5.409903e-002 2.929274e+000 150 140 115
-9.451458e-002 1.917705e-001 3.019148e+000 72 65 54
-2.250913e-002 4.415265e-001 3.373322e+000 85 77 58
2.791709e-001 -8.244325e-001 3.322909e+000 193 206 215
2.863097e-001 -7.839234e-001 3.426441e+000 199 211 219
2.596918e-001 -6.805150e-001 3.414643e+000 191 205 214
3.156676e-001 -6.476414e-001 3.498257e+000 192 201 206
3.308707e-001 -6.557529e-001 3.476858e+000 192 201 206
3.177359e-001 -6.523933e-001 3.466164e+000 111 120 127
-1.278650e-001 -6.481995e-001 3.096437e+000 151 159 163
1.260277e-001 -6.176920e-001 3.267920e+000 112 106 90
8.940383e-002 -6.194000e-001 3.236727e+000 130 121 105
7.651249e-002 -6.203338e-001 3.221344e+000 129 120 103
4.480048e-002 -6.153166e-001 3.185401e+000 56 49 36
-5.469981e-002 -6.151057e-001 3.078601e+000 132 120 102
-5.379298e-002 -6.154461e-001 3.078724e+000 132 120 102
1.884538e-001 -5.958166e-001 3.233709e+000 54 48 34
1.884538e-001 -5.958166e-001 3.233709e+000 54 48 34
-1.301886e-002 -5.830280e-001 3.031479e+000 128 117 97
2.511582e-001 -5.651518e-001 3.215765e+000 124 113 96
2.465786e-001 -5.658541e-001 3.163937e+000 130 116 98
2.332136e-001 -5.597006e-001 3.183239e+000 130 116 98
-4.521537e-002 -5.734845e-001 2.930242e+000 79 71 54
2.517884e-001 -4.726860e-001 3.551987e+000 195 202 208
2.620315e-001 -5.282114e-001 3.044121e+000 65 51 33
-2.168332e-003 -5.313890e-001 2.863214e+000 129 114 95
2.255491e-001 -5.172018e-001 3.019079e+000 116 101 82
5.115814e-002 -5.224843e-001 2.887021e+000 123 110 90
8.976844e-002 -5.070438e-001 2.868413e+000 118 105 86
9.441481e-002 -5.097702e-001 2.861967e+000 118 105 86
1.669092e-001 -5.058684e-001 2.905966e+000 124 109 90
9.028090e-002 -5.042133e-001 2.850636e+000 127 111 95
1.602213e-001 -5.002692e-001 2.883479e+000 125 113 90
1.602213e-001 -5.002692e-001 2.883479e+000 125 113 90
1.813654e-001 -4.853478e-001 2.833987e+000 127 115 93
2.281471e-001 -4.719906e-001 2.873286e+000 119 105 86
2.368811e-001 -4.760314e-001 2.862199e+000 119 105 86
2.368811e-001 -4.760314e-001 2.862199e+000 119 105 86
1.452175e-002 -4.738323e-001 2.697521e+000 121 105 86
6.546149e-002 -4.519158e-001 2.651800e+000 126 114 92
6.725021e-002 -4.528005e-001 2.645805e+000 126 114 92
3.213069e-001 -4.417377e-001 2.815027e+000 121 106 87
3.411716e-001 -4.318115e-001 2.788650e+000 126 111 91
3.411716e-001 -4.318115e-001 2.788650e+000 126 111 91
4.329991e-001 -4.292174e-001 2.845082e+000 67 51 27
3.112657e-001 -4.312792e-001 2.762641e+000 127 110 90
3.119292e-001 -4.315030e-001 2.762983e+000 127 110 90
3.916557e-001 -3.997313e-001 2.735870e+000 144 128 105
3.587075e-001 -3.983443e-001 2.711269e+000 135 119 98
8.583382e-002 -1.547403e-001 2.764299e+000 168 161 143
7.328108e-002 -1.199989e-001 2.790903e+000 145 140 122
7.328108e-002 -1.199989e-001 2.790903e+000 145 140 122
8.375305e-002 -1.130227e-001 2.810285e+000 134 130 114
1.942280e-002 -6.377827e-004 2.889498e+000 144 140 119
1.942280e-002 -6.377827e-004 2.889498e+000 144 140 119
-3.665364e-002 6.588077e-002 2.925414e+000 62 54 43
3.186395e-002 -5.927323e-001 3.074632e+000 131 114 88
3.737204e-003 -6.539640e-001 3.239588e+000 184 194 203
2.332679e-001 -6.909775e-001 3.437347e+000 201 214 223
1.074985e-001 -4.469511e-001 2.696650e+000 124 103 76
3.281581e-001 -4.183161e-001 2.854380e+000 91 82 65
2.591707e-001 -5.278765e-001 3.020814e+000 133 112 86
2.399967e-002 -5.155382e-001 2.765324e+000 119 99 72
2.365685e-001 -8.332874e-001 3.405409e+000 198 210 216
3.048212e-002 -6.424705e-001 3.267510e+000 182 195 203
-8.800837e-002 -6.397108e-001 3.139447e+000 87 97 99
1.323809e-002 -5.516906e-001 2.868176e+000 125 108 84
5.776066e-001 -3.486399e-001 2.978016e+000 143 128 106
2.651194e-002 -7.043586e-001 3.233245e+000 170 187 197
-4.841048e-002 -6.278440e-001 3.122895e+000 131 115 92
-7.794149e-002 -6.305438e-001 3.089312e+000 133 117 92
-1.242736e-001 -6.273728e-001 3.044991e+000 83 70 55
-6.993680e-002 -6.251482e-001 3.075711e+000 107 97 79
-1.559014e-001 -5.608713e-001 2.773986e+000 157 169 173
1.158508e-002 -5.574886e-001 2.845702e+000 106 94 77
6.644521e-003 -5.470143e-001 2.835474e+000 126 109 84
1.028101e-001 -5.362398e-001 2.869462e+000 54 42 18
1.439070e-001 -5.077762e-001 2.864931e+000 124 102 79
2.651475e-001 -4.686061e-001 2.885273e+000 123 108 75
2.651475e-001 -4.686061e-001 2.885273e+000 123 108 75
5.124586e-001 -3.538690e-001 2.926542e+000 142 128 102
2.721976e-001 -3.624191e-001 2.720181e+000 142 125 100
5.612405e-001 -3.480681e-001 2.967562e+000 148 133 108
1.371763e-001 -7.627931e-001 3.327853e+000 196 213 221
1.892355e-001 -5.243455e-001 2.951899e+000 128 110 84
1.182316e-001 -5.127901e-001 2.853645e+000 126 109 77
8.799398e-002 -5.095264e-001 2.809078e+000 120 106 77
2.625455e-001 -4.608106e-001 2.866943e+000 115 99 73
2.483085e-001 -4.610031e-001 2.854091e+000 121 105 78
2.483085e-001 -4.610031e-001 2.854091e+000 121 105 78
1.942838e-001 -4.495480e-001 2.794501e+000 116 99 73
1.942838e-001 -4.495480e-001 2.794501e+000 116 99 73
1.942838e-001 -4.495480e-001 2.794501e+000 116 99 73
1.739726e-001 -4.237135e-001 2.718977e+000 116 100 77
3.075285e-001 -4.086212e-001 2.814968e+000 116 100 74
3.075285e-001 -4.086212e-001 2.814968e+000 116 100 74
2.343806e-001 -7.202864e-001 3.428946e+000 195 208 217
5.979551e-002 -6.231380e-001 3.235728e+000 69 59 47
1.244630e-001 -6.152027e-001 3.270253e+000 131 120 100
-1.480533e-001 -6.181150e-001 2.956861e+000 63 55 37
-1.352612e-001 -6.104802e-001 2.934955e+000 56 47 37
2.124944e-001 -4.456343e-001 3.499969e+000 197 204 210
2.091169e-001 -5.810964e-001 3.164021e+000 59 52 35
1.600454e-001 -5.727845e-001 3.134954e+000 130 116 91
9.220792e-002 -5.667828e-001 2.989256e+000 126 114 92
2.314222e-001 -5.241511e-001 3.011745e+000 129 113 91
-8.511396e-003 -5.324935e-001 2.788121e+000 118 103 79
-2.785077e-002 -5.322634e-001 2.764601e+000 118 103 78
2.276213e-001 -5.214364e-001 2.982611e+000 127 111 86
-2.134566e-002 -5.296300e-001 2.754294e+000 119 103 76
5.567332e-002 -5.200571e-001 2.809035e+000 122 104 79
5.567332e-002 -5.200571e-001 2.809035e+000 122 104 79
1.764659e-001 -5.051394e-001 2.887388e+000 125 109 84
1.359033e-001 -4.871716e-001 2.797830e+000 123 105 81
1.852064e-002 -4.893665e-001 2.691999e+000 118 103 79
2.062808e-001 -4.662000e-001 2.825884e+000 120 106 80
1.844126e-001 -4.661613e-001 2.807677e+000 114 100 74
1.113771e-001 -4.707077e-001 2.742045e+000 114 103 78
2.348028e-001 -4.603288e-001 2.840914e+000 121 105 79
2.200902e-001 -4.605658e-001 2.827303e+000 114 100 71
2.200902e-001 -4.605658e-001 2.827303e+000 114 100 71
1.876341e-001 -4.600089e-001 2.803997e+000 116 100 72
1.761642e-001 -4.613187e-001 2.788594e+000 116 103 76
1.761642e-001 -4.613187e-001 2.788594e+000 116 103 76
3.325735e-002 -4.602371e-001 2.655305e+000 50 39 28
1.273884e-001 -4.549195e-001 2.731315e+000 119 102 79
1.273884e-001 -4.549195e-001 2.731315e+000 119 102 79
1.640276e-001 -4.373343e-001 2.731232e+000 122 104 80
5.168600e-002 -4.339929e-001 2.626292e+000 44 36 25
2.188702e-001 -4.281138e-001 2.765194e+000 120 106 80
2.243980e-001 -4.276004e-001 2.768516e+000 121 107 84
2.243980e-001 -4.276004e-001 2.768516e+000 121 107 84
1.296914e-001 -4.263518e-001 2.690771e+000 119 101 77
1.296914e-001 -4.263518e-001 2.690771e+000 119 101 77
3.167248e-001 -4.180153e-001 2.837205e+000 122 107 84
1.463728e-001 -4.195106e-001 2.687727e+000 51 35 25
3.396936e-001 -4.068609e-001 2.838151e+000 120 105 78
3.396936e-001 -4.068609e-001 2.838151e+000 120 105 78
2.464688e-001 -4.082697e-001 2.759983e+000 114 98 72
2.464688e-001 -4.082697e-001 2.759983e+000 114 98 72
2.376058e-001 -4.087015e-001 2.751155e+000 121 105 79
2.376058e-001 -4.087015e-001 2.751155e+000 121 105 79
1.814478e-001 -4.065225e-001 2.695067e+000 57 45 28
7.005840e-002 -4.075443e-001 2.597260e+000 59 42 30
7.005840e-002 -4.075443e-001 2.597260e+000 59 42 30
2.665904e-001 -7.776283e-001 3.454479e+000 201 215 225
2.686315e-001 -7.607028e-001 3.455241e+000 200 217 227
1.335793e-001 -7.420228e-001 3.326626e+000 192 209 217
1.346743e-001 -7.289607e-001 3.333869e+000 192 206 215
3.043307e-001 -6.171656e-001 3.518768e+000 191 200 207
-9.926649e-002 -6.423792e-001 3.133783e+000 151 163 169
1.381198e-001 -6.136764e-001 3.282639e+000 134 123 103
1.001822e-001 -6.166194e-001 3.245743e+000 132 124 101
-8.560779e-002 -6.270606e-001 3.073152e+000 125 114 96
-4.190929e-002 -6.043886e-001 3.028837e+000 135 123 101
-8.257555e-003 -6.001887e-001 3.021853e+000 135 121 102
-9.072039e-002 -5.981501e-001 2.927279e+000 133 120 102
-7.191193e-002 -5.966374e-001 2.938987e+000 134 119 98
-7.191193e-002 -5.966374e-001 2.938987e+000 134 119 98
6.056126e-003 -5.920110e-001 3.006528e+000 128 115 96
1.515314e-001 -5.792257e-001 3.111477e+000 128 115 96
1.962979e-001 -5.753116e-001 3.149157e+000 128 115 96
-6.728379e-002 -5.898664e-001 2.911498e+000 127 112 93
-7.729551e-002 -5.898942e-001 2.905175e+000 125 112 93
7.839386e-003 -5.790788e-001 2.951517e+000 122 108 89
1.064933e-001 -5.665377e-001 3.002488e+000 119 108 83
6.970539e-002 -5.677002e-001 2.964500e+000 130 115 92
2.895934e-002 -5.702654e-001 2.925331e+000 118 105 86
1.711489e-001 -5.574024e-001 3.051024e+000 130 114 91
-8.482144e-003 -5.619585e-001 2.891285e+000 125 109 90
1.471070e-003 -5.677207e-001 2.876750e+000 124 109 86
5.411209e-002 -5.575365e-001 2.916588e+000 117 106 88
5.411209e-002 -5.575365e-001 2.916588e+000 117 106 88
1.176665e-002 -5.572508e-001 2.880283e+000 128 113 93
8.685327e-002 -5.589127e-001 2.926343e+000 126 110 85
3.143562e-002 -5.381811e-001 2.840625e+000 125 108 88
2.589901e-002 -5.379145e-001 2.836418e+000 115 100 79
-4.534661e-002 -5.393822e-001 2.779538e+000 49 38 20
1.707064e-001 -5.327954e-001 2.957179e+000 58 43 24
1.707064e-001 -5.327954e-001 2.957179e+000 58 43 24
-1.327880e-002 -5.374541e-001 2.801312e+000 127 111 89
2.016394e-001 -5.280194e-001 2.981897e+000 123 111 89
1.602392e-001 -5.181547e-001 2.905712e+000 122 107 86
1.092002e-001 -4.957697e-001 2.803759e+000 127 107 80
1.848529e-001 -4.831703e-001 2.844524e+000 116 100 76
2.748053e-001 -4.735462e-001 2.912911e+000 122 106 83
1.856950e-001 -4.769150e-001 2.832737e+000 122 107 88
2.762625e-001 -4.607366e-001 2.891726e+000 47 36 19
2.762625e-001 -4.607366e-001 2.891726e+000 47 36 19
1.191152e-001 -4.660088e-001 2.743232e+000 45 32 15
2.680780e-001 -4.584493e-001 2.871281e+000 123 108 81
2.561483e-001 -4.595197e-001 2.857609e+000 127 112 85
1.173472e-001 -4.623023e-001 2.736511e+000 121 106 82
1.090938e-001 -4.629556e-001 2.727371e+000 121 105 80
1.090938e-001 -4.629556e-001 2.727371e+000 121 105 80
1.185172e-001 -4.556273e-001 2.722537e+000 117 100 78
1.185172e-001 -4.556273e-001 2.722537e+000 117 100 78
1.548220e-001 -4.406270e-001 2.742210e+000 120 101 77
7.111445e-002 -4.466459e-001 2.657931e+000 117 101 82
7.111445e-002 -4.466459e-001 2.657931e+000 117 101 82
1.735300e-001 -4.362284e-001 2.738047e+000 122 107 83
2.860227e-001 -4.248940e-001 2.829798e+000 119 103 84
2.395999e-001 -4.273353e-001 2.785571e+000 112 98 77
2.677037e-001 -4.227668e-001 2.803132e+000 117 102 81
2.677037e-001 -4.227668e-001 2.803132e+000 117 102 81
1.914850e-001 -4.244415e-001 2.730529e+000 118 103 81
1.914850e-001 -4.244415e-001 2.730529e+000 118 103 81
7.016939e-002 -4.237104e-001 2.631101e+000 122 110 88
2.730289e-001 -4.160894e-001 2.797186e+000 115 100 80
3.211046e-001 -4.126018e-001 2.836623e+000 116 104 82
2.386836e-001 -4.117829e-001 2.759783e+000 59 44 25
2.386836e-001 -4.117829e-001 2.759783e+000 59 44 25
1.530846e-001 -4.154039e-001 2.682234e+000 107 94 76
1.530846e-001 -4.154039e-001 2.682234e+000 107 94 76
2.012949e-001 -4.090608e-001 2.718121e+000 119 101 76
1.928303e-001 -4.084801e-001 2.712152e+000 123 106 87
2.733920e-001 -7.573580e-001 3.460120e+000 199 213 222
2.204033e-001 -7.421687e-001 3.415339e+000 188 203 212
-6.904734e-002 -6.762591e-001 3.149547e+000 175 190 197
8.767722e-002 -6.195736e-001 3.272666e+000 71 63 43
9.066144e-002 -6.217722e-001 3.260825e+000 138 127 110
9.066144e-002 -6.217722e-001 3.260825e+000 138 127 110
8.695982e-002 -6.173162e-001 3.232436e+000 135 126 104
8.695982e-002 -6.173162e-001 3.232436e+000 135 126 104
1.747600e-001 -6.086658e-001 3.314618e+000 72 62 52
1.122578e-001 -6.122232e-001 3.252761e+000 65 55 42
-1.163341e-002 -6.230343e-001 3.134289e+000 128 118 103
-1.163341e-002 -6.230343e-001 3.134289e+000 128 118 103
1.104799e-002 -6.194545e-001 3.154541e+000 82 69 51
-2.598501e-002 -6.210456e-001 3.116278e+000 63 51 36
1.492157e-001 -6.088340e-001 3.269423e+000 122 117 101
-4.020360e-002 -6.165856e-001 3.071600e+000 71 58 41
1.937590e-001 -5.800787e-001 3.281246e+000 135 120 100
-3.353427e-002 -6.109158e-001 3.034565e+000 135 119 95
-6.889239e-002 -6.070116e-001 2.973225e+000 130 115 96
-5.647552e-002 -5.950810e-001 2.957865e+000 137 122 103
1.748493e-001 -5.788061e-001 3.143234e+000 119 106 88
2.648635e-001 -5.763615e-001 3.215935e+000 73 61 45
2.232705e-001 -5.770475e-001 3.179745e+000 61 49 33
-6.373993e-003 -5.873424e-001 2.968896e+000 132 117 98
1.246514e-001 -5.794602e-001 3.078422e+000 133 120 100
1.246514e-001 -5.794602e-001 3.078422e+000 133 120 100
2.092272e-001 -5.719410e-001 3.138924e+000 127 115 99
2.809629e-001 -5.665240e-001 3.203805e+000 128 117 99
1.975904e-001 -5.715232e-001 3.128528e+000 117 109 94
1.871722e-001 -5.673520e-001 3.108278e+000 125 111 90
1.333563e-002 -5.707198e-001 2.914626e+000 122 107 88
1.333563e-002 -5.707198e-001 2.914626e+000 122 107 88
-5.618363e-002 -5.693656e-001 2.853655e+000 132 118 97
1.122361e-001 -5.625394e-001 2.994067e+000 122 111 89
1.791216e-002 -5.401712e-001 2.825732e+000 129 114 93
1.142304e-001 -5.323647e-001 2.900696e+000 58 42 24
1.526357e-001 -5.299543e-001 2.928628e+000 59 45 22
2.365250e-001 -5.243019e-001 3.002172e+000 128 113 91
2.074302e-001 -5.233968e-001 2.977961e+000 123 109 86
-2.459357e-003 -5.346433e-001 2.792395e+000 50 33 13
9.877254e-002 -5.290327e-001 2.873222e+000 117 105 81
-2.122992e-002 -5.284687e-001 2.766989e+000 56 41 27
1.291861e-001 -5.137353e-001 2.860139e+000 42 29 7
5.802570e-003 -5.124793e-001 2.741661e+000 55 42 25
5.802570e-003 -5.124793e-001 2.741661e+000 55 42 25
4.776432e-004 -5.122878e-001 2.736294e+000 47 34 18
7.695164e-002 -4.977448e-001 2.769938e+000 40 29 17
7.695164e-002 -4.977448e-001 2.769938e+000 40 29 17
8.537374e-002 -4.972839e-001 2.776762e+000 35 27 17
8.342954e-002 -4.940004e-001 2.760387e+000 53 41 24
1.802516e-001 -4.877333e-001 2.845529e+000 52 36 21
1.802516e-001 -4.877333e-001 2.845529e+000 52 36 21
1.954297e-001 -4.825868e-001 2.853105e+000 116 101 79
9.400913e-002 -4.872342e-001 2.764630e+000 40 32 16
3.253371e-001 -4.737959e-001 2.966559e+000 65 52 38
3.253371e-001 -4.737959e-001 2.966559e+000 65 52 38
4.759555e-002 -4.826057e-001 2.714885e+000 56 44 28
4.759555e-002 -4.826057e-001 2.714885e+000 56 44 28
2.740882e-001 -4.699678e-001 2.907335e+000 43 35 18
2.740882e-001 -4.699678e-001 2.907335e+000 43 35 18
2.050549e-001 -4.748206e-001 2.843854e+000 120 107 89
2.050549e-001 -4.748206e-001 2.843854e+000 120 107 89
2.346463e-001 -4.699351e-001 2.867605e+000 129 117 95
2.346463e-001 -4.699351e-001 2.867605e+000 129 117 95
1.361688e-001 -4.692448e-001 2.765107e+000 119 106 81
2.736831e-001 -4.617286e-001 2.885668e+000 130 113 98
4.605519e-002 -4.727139e-001 2.682356e+000 48 34 15
3.938300e-002 -4.714793e-001 2.677025e+000 53 40 23
5.247827e-002 -4.674789e-001 2.684620e+000 110 97 75
5.247827e-002 -4.674789e-001 2.684620e+000 110 97 75
1.806862e-001 -4.498175e-001 2.776918e+000 37 26 9
1.806862e-001 -4.498175e-001 2.776918e+000 37 26 9
1.728236e-001 -4.520785e-001 2.765903e+000 37 29 10
5.271486e-002 -4.508007e-001 2.656942e+000 49 36 19
7.635437e-002 -4.425504e-001 2.659485e+000 54 42 24
6.141228e-002 -4.409318e-001 2.642471e+000 50 39 18
6.323230e-002 -4.358936e-001 2.642091e+000 110 99 78
6.323230e-002 -4.358936e-001 2.642091e+000 110 99 78
2.475136e-001 -4.284439e-001 2.791605e+000 121 109 86
1.976542e-001 -4.292597e-001 2.749029e+000 120 105 84
2.595032e-001 -4.240145e-001 2.796355e+000 118 106 83
1.364653e-001 -4.285252e-001 2.692901e+000 51 37 24
3.360974e-001 -4.222244e-001 2.857909e+000 49 37 21
2.120119e-001 -4.259410e-001 2.751917e+000 51 39 21
6.449336e-002 -4.277446e-001 2.632243e+000 50 36 21
2.853047e-001 -4.198366e-001 2.811135e+000 54 40 28
2.853047e-001 -4.198366e-001 2.811135e+000 54 40 28
9.030085e-002 -4.222062e-001 2.638664e+000 62 46 26
2.791441e-001 -4.130885e-001 2.796829e+000 55 39 22
2.668678e-001 -4.158456e-001 2.783040e+000 50 37 16
1.433314e-001 -4.176297e-001 2.681780e+000 109 98 78
8.145188e-002 -4.207881e-001 2.627873e+000 116 100 77
1.929591e-001 -4.147335e-001 2.714823e+000 62 45 26
1.624828e-001 -4.116166e-001 2.689251e+000 49 35 18
1.624828e-001 -4.116166e-001 2.689251e+000 49 35 18
1.511651e-001 -4.093380e-001 2.678087e+000 43 31 12
1.511651e-001 -4.093380e-001 2.678087e+000 43 31 12
-1.279205e-001 2.268804e-001 3.041141e+000 45 42 31
-1.412412e-003 -9.732643e-002 2.767961e+000 130 113 93
-3.586339e-002 -2.178607e-001 2.650531e+000 124 108 85
-1.967423e-002 -1.804485e-001 2.688847e+000 121 113 102
-5.794628e-002 -1.544106e-001 2.680931e+000 128 114 88
3.722937e-001 -1.197920e-001 2.985003e+000 94 80 70
3.722937e-001 -1.197920e-001 2.985003e+000 94 80 70
-1.044765e-001 -6.607566e-002 2.737294e+000 128 116 94
-1.169974e-001 2.440466e-001 3.071257e+000 104 101 90
4.028810e-001 -6.480249e-001 3.496236e+000 190 203 210
4.524778e-001 -1.748005e-001 2.984426e+000 99 87 71
4.524778e-001 -1.748005e-001 2.984426e+000 99 87 71
4.380540e-001 -1.436673e-001 3.006435e+000 133 122 104
1.452548e-001 -1.088154e-001 2.850786e+000 56 48 37
3.130197e-001 -1.776810e-002 3.062451e+000 102 90 74
4.107473e-002 2.528621e-002 2.915768e+000 133 117 94
1.554317e-001 -2.465181e-001 2.734979e+000 46 42 33
2.087995e-001 -1.906859e-001 2.804478e+000 48 45 40
-2.675328e-002 -1.521158e-001 2.702366e+000 136 120 94
1.715542e-001 -1.141910e-001 2.855282e+000 45 43 38
1.127414e-002 -6.695794e-002 2.804712e+000 51 47 36
9.876554e-002 2.539879e-002 2.949513e+000 42 40 35
-6.686098e-002 9.711785e-002 2.917690e+000 46 42 34
-2.613107e-002 1.319957e-001 2.984503e+000 128 112 89
-5.100515e-002 1.519792e-001 3.002613e+000 47 44 36
-9.734087e-002 1.858576e-001 3.002836e+000 128 117 96
-3.418811e-001 4.104298e-001 3.140625e+000 128 113 89
4.877951e-001 -2.300101e-001 2.943714e+000 60 50 40
2.174341e-001 -2.082643e-001 2.794567e+000 51 49 44
1.766620e-001 -2.039424e-001 2.770265e+000 48 46 43
9.189856e-002 -1.417713e-001 2.784058e+000 136 124 101
9.725494e-002 -1.115895e-001 2.815150e+000 52 43 37
4.215665e-003 -4.203596e-002 2.826672e+000 50 44 35
4.215665e-003 -4.203596e-002 2.826672e+000 50 44 35
-9.747893e-002 -3.837537e-002 2.769871e+000 54 48 38
1.033146e-001 -2.548183e-002 2.906171e+000 58 51 41
3.739011e-002 -1.351471e-002 2.873129e+000 46 45 41
-2.881266e-002 5.010997e-002 2.899480e+000 130 118 95
-7.775579e-003 8.163680e-002 2.948870e+000 50 42 35
-4.195141e-002 9.540519e-002 2.941019e+000 50 50 42
-4.195141e-002 9.540519e-002 2.941019e+000 50 50 42
2.465021e-001 -4.821229e-001 3.506446e+000 175 185 194
-3.612612e-004 -2.340060e-001 2.646091e+000 122 110 94
-5.193614e-004 -2.364667e-001 2.647302e+000 122 110 94
9.929621e-002 -2.043596e-001 2.734007e+000 54 53 41
9.636300e-002 -2.074104e-001 2.736647e+000 54 53 41
1.179512e-001 -1.834692e-001 2.758531e+000 52 39 32
1.102082e-001 -1.533400e-001 2.782510e+000 46 41 35
5.720156e-002 -1.549534e-001 2.750425e+000 131 114 97
5.720156e-002 -1.549534e-001 2.750425e+000 131 114 97
7.751208e-003 -5.201482e-002 2.817932e+000 42 41 34
3.634060e-001 -3.160278e-002 3.081320e+000 70 59 42
-4.089989e-002 1.848745e-002 2.860771e+000 49 43 38
-6.270375e-002 5.961715e-002 2.889539e+000 52 45 33
-6.135432e-002 6.156702e-002 2.887461e+000 52 45 33
-5.237339e-002 1.224333e-001 2.964081e+000 132 116 100
-5.237339e-002 1.224333e-001 2.964081e+000 132 116 100
-8.198476e-002 1.264124e-001 2.950233e+000 50 42 30
-6.228759e-002 1.398407e-001 2.969960e+000 51 48 35
-6.228759e-002 1.398407e-001 2.969960e+000 51 48 35
-4.389218e-002 1.438507e-001 2.996115e+000 49 42 32
-1.621154e-001 2.295839e-001 3.022791e+000 50 43 34
2.658741e-001 -5.278254e-001 3.492717e+000 179 189 199
3.940721e-001 -1.623521e-001 2.954735e+000 129 116 99
4.453499e-001 -1.575358e-001 3.003897e+000 133 120 103
-3.478023e-003 -1.648865e-001 2.702439e+000 45 37 22
-3.606508e-002 -1.665231e-001 2.680494e+000 52 45 31
6.643848e-002 -1.311701e-001 2.768953e+000 51 45 38
8.253685e-002 -1.288249e-001 2.787431e+000 48 46 36
5.835062e-002 -1.230025e-001 2.778945e+000 122 112 97
6.512966e-002 -1.205708e-001 2.785912e+000 50 43 33
4.853664e-002 -1.218628e-001 2.775394e+000 47 42 33
5.675521e-002 -1.061906e-001 2.792938e+000 50 38 28
7.198518e-002 -9.033247e-002 2.819302e+000 49 40 33
7.227006e-002 -9.156169e-002 2.819815e+000 49 40 33
-6.289283e-002 -9.073429e-002 2.733385e+000 124 114 97
3.866735e-001 -6.787540e-002 3.059700e+000 136 124 109
3.866735e-001 -6.787540e-002 3.059700e+000 136 124 109
-8.172270e-002 -7.833431e-002 2.741438e+000 42 34 21
2.791333e-002 -6.443750e-002 2.809593e+000 52 47 44
2.078220e-002 -5.521434e-002 2.819323e+000 120 108 89
1.876383e-002 -4.898888e-002 2.821426e+000 122 109 94
1.703812e-002 -5.040691e-002 2.824460e+000 122 109 94
-8.760753e-002 -5.600279e-002 2.752230e+000 46 44 32
3.445538e-002 -4.915590e-002 2.837933e+000 139 133 116
3.445538e-002 -4.915590e-002 2.837933e+000 139 133 116
9.052410e-003 -2.004282e-002 2.847710e+000 52 46 37
-5.847451e-003 -1.626346e-002 2.848081e+000 127 113 94
-9.176354e-002 -1.044712e-002 2.795192e+000 128 116 100
-9.078396e-002 -8.983968e-003 2.793281e+000 128 116 100
-1.382121e-002 1.823418e-003 2.859052e+000 130 119 99
1.171276e-002 1.349093e-002 2.881326e+000 121 110 99
1.171276e-002 1.349093e-002 2.881326e+000 121 110 99
-1.434051e-002 5.583985e-002 2.906356e+000 50 39 26
-4.837473e-002 7.181619e-002 2.900715e+000 51 43 32
-4.261554e-002 7.964777e-002 2.920529e+000 45 42 34
-3.131556e-002 9.551283e-002 2.949218e+000 50 46 36
-1.020725e-001 2.189875e-001 3.045531e+000 47 38 31
-1.457608e-001 2.332993e-001 3.028306e+000 48 42 33
-1.186764e-001 2.510899e-001 3.075632e+000 52 46 32
-2.372245e-001 3.508443e-001 3.127342e+000 51 40 33
-1.241779e-002 -2.519945e-001 2.642535e+000 46 34 21
7.672698e-003 -1.907010e-001 2.682032e+000 51 43 29
7.672698e-003 -1.907010e-001 2.682032e+000 51 43 29
4.025550e-003 -1.801686e-001 2.695011e+000 48 37 22
8.758993e-002 -1.132484e-001 2.805653e+000 121 115 101
4.111408e-001 -8.976215e-002 3.042368e+000 135 120 102
4.111408e-001 -8.976215e-002 3.042368e+000 135 120 102
3.729523e-002 -1.009845e-001 2.784856e+000 136 124 107
-4.606150e-002 -7.318194e-002 2.760056e+000 42 30 15
-4.606150e-002 -7.318194e-002 2.760056e+000 42 30 15
-9.555965e-002 -5.300936e-002 2.746314e+000 115 103 84
-6.460850e-002 -3.407310e-002 2.785287e+000 62 49 33
-6.440404e-002 -3.246097e-002 2.782760e+000 62 49 33
-7.692148e-002 -1.632227e-002 2.797875e+000 40 25 6
-9.591142e-002 -1.006420e-003 2.797228e+000 37 28 14
-9.591142e-002 -1.006420e-003 2.797228e+000 37 28 14
2.800210e-001 4.097648e-002 3.086169e+000 71 58 42
-3.750056e-002 1.075898e-001 2.950047e+000 128 118 105
8.145098e-002 1.225281e-001 3.036565e+000 63 51 37
8.145098e-002 1.225281e-001 3.036565e+000 63 51 37
9.571260e-002 1.232810e-001 3.071261e+000 56 44 31
-9.261754e-002 1.850412e-001 3.019527e+000 133 121 103
-1.363310e-001 2.077741e-001 3.020607e+000 34 28 20
-1.040673e-001 2.323007e-001 3.058860e+000 46 40 32
-1.343591e-001 2.552655e-001 3.069560e+000 55 47 29
-1.343591e-001 2.552655e-001 3.069560e+000 55 47 29
-1.507462e-001 2.510242e-001 3.061429e+000 52 40 29
-7.554690e-002 3.707669e-001 3.281815e+000 53 44 36
-8.634257e-002 4.930083e-001 3.455021e+000 132 124 109
-6.418561e-002 4.965677e-001 3.484747e+000 48 39 24
-4.659161e-002 8.699521e-002 2.937817e+000 55 52 47
1.158565e-001 -1.278382e-001 2.812864e+000 138 122 106
1.991391e-001 -2.348935e-001 2.747751e+000 54 54 49
2.796893e-001 3.151595e-002 3.100919e+000 95 85 74
2.801279e-001 3.248461e-002 3.100256e+000 95 85 74
4.325719e-001 -1.462325e-001 3.009729e+000 134 125 110
-3.130749e-001 3.743061e-001 3.087907e+000 59 56 46
5.147763e-003 -1.455338e-002 2.857572e+000 58 54 51
5.147763e-003 -1.455338e-002 2.857572e+000 58 54 51
3.432039e-002 -6.459490e-002 2.819890e+000 60 63 57
-4.438599e-002 9.402462e-002 2.942492e+000 54 54 48
-2.692293e-002 5.387194e-002 2.918610e+000 55 56 51
1.041508e-001 -1.774478e-001 2.751060e+000 139 125 109
9.455495e-002 -4.813853e-002 2.878060e+000 54 53 53
7.628628e-002 1.647770e-002 2.933590e+000 108 99 90
-6.778359e-002 -1.002284e-001 2.725427e+000 57 55 51
-1.683630e-001 2.144900e-001 3.013863e+000 141 131 114
-3.636206e-002 3.412431e-002 2.885167e+000 57 56 52
-4.658702e-002 1.243940e-001 2.979368e+000 53 53 48
-1.037714e-001 2.284244e-001 3.070010e+000 55 55 49
-2.775409e-002 1.086867e-001 2.975004e+000 62 62 54
4.141624e-002 -8.318043e-004 2.890354e+000 144 132 116
-6.445608e-002 -9.323939e-002 2.735265e+000 128 118 105
-3.763565e-001 4.721309e-001 3.178199e+000 133 124 105
5.358911e-003 -6.757926e-002 2.800485e+000 57 53 48
5.358911e-003 -6.757926e-002 2.800485e+000 57 53 48
2.310349e-002 -8.067841e-002 2.798678e+000 53 52 47
4.210378e-002 -1.076961e-001 2.782108e+000 62 53 44
-6.423273e-003 2.318987e-003 2.868418e+000 56 53 47
-6.115085e-003 2.455466e-003 2.867980e+000 56 53 47
2.762151e-002 -5.371378e-002 2.828594e+000 52 51 49
3.900110e-002 -5.451603e-002 2.831646e+000 136 129 116
-2.418372e-002 6.720788e-002 2.930712e+000 142 131 117
4.559488e-002 -5.106506e-002 2.841239e+000 56 51 48
-3.378605e-002 9.220337e-002 2.951693e+000 59 54 49
-3.407628e-002 1.038938e-001 2.958220e+000 136 130 111
2.198559e-002 2.853592e-002 2.911442e+000 59 56 47
-4.858105e-002 4.911575e-001 3.485900e+000 69 65 54
3.578862e-001 -1.211531e-001 2.987679e+000 74 67 54
-8.814562e-002 1.689274e-002 2.813035e+000 66 60 47
-1.676473e-001 2.387639e-001 3.028636e+000 55 53 49
2.841498e-002 -9.506942e-002 2.788812e+000 63 54 47
2.841498e-002 -9.506942e-002 2.788812e+000 63 54 47
-4.733169e-002 4.508197e-002 2.896654e+000 63 55 47
4.219058e-002 -1.073583e-001 2.782146e+000 61 52 43
-8.293231e-002 1.423706e-001 2.979783e+000 137 130 113
-8.293231e-002 1.423706e-001 2.979783e+000 137 130 113
-3.116022e-002 6.800308e-002 2.920093e+000 62 55 45
8.627620e-002 -1.502191e-001 2.764472e+000 128 122 109
-8.889767e-002 1.899898e-001 3.026606e+000 143 131 114
-1.124154e-001 2.397768e-001 3.066290e+000 125 122 107
-1.134258e-001 2.375704e-001 3.067910e+000 125 122 107
-7.886413e-004 5.498107e-002 2.924492e+000 134 123 103
-3.879474e-002 1.172275e-001 2.977937e+000 133 124 113
1.162247e-001 -1.710813e-001 2.763982e+000 136 130 118
-1.389748e-001 3.499298e-001 3.201687e+000 144 133 111
2.794034e-001 1.564354e-003 3.087632e+000 144 135 118
-7.472784e-002 -5.711307e-002 2.764307e+000 57 53 46
-5.633558e-002 -9.455577e-002 2.738527e+000 118 114 103
-3.008256e-001 3.631262e-001 3.087413e+000 59 49 37
-7.316269e-002 8.318607e-002 2.917824e+000 123 117 107
-7.316269e-002 8.318607e-002 2.917824e+000 123 117 107
-1.334931e-001 2.144500e-001 3.026241e+000 123 119 107
-1.334931e-001 2.144500e-001 3.026241e+000 123 119 107
5.322205e-002 -9.822953e-002 2.797069e+000 134 126 113
-1.259228e-001 2.339056e-001 3.048331e+000 53 48 43
-1.683305e-002 4.433812e-002 2.906871e+000 131 124 108
9.592874e-002 -6.564474e-002 2.858433e+000 128 123 107
1.486575e-001 -1.259272e-001 2.832790e+000 58 56 47
1.486575e-001 -1.259272e-001 2.832790e+000 58 56 47
1.620209e-001 -1.237272e-001 2.837750e+000 60 56 47
1.937252e-001 -1.865329e-001 2.800360e+000 58 55 46
-3.943277e-002 3.562932e-001 3.281589e+000 57 47 38
-3.943277e-002 3.562932e-001 3.281589e+000 57 47 38
-1.484614e-002 4.937670e-001 3.514441e+000 73 63 51
-1.484614e-002 4.937670e-001 3.514441e+000 73 63 51
2.166762e-001 -2.282949e-001 2.763460e+000 43 44 38
2.166762e-001 -2.282949e-001 2.763460e+000 43 44 38
-5.887973e-002 4.618715e-001 3.497157e+000 130 124 113
1.123983e-001 -2.145420e-001 2.715732e+000 48 47 42
1.560237e-001 -1.910461e-001 2.765892e+000 135 120 100
8.420258e-002 5.827279e-002 2.970101e+000 48 46 43
-1.304950e-001 1.942412e-001 3.005558e+000 46 41 35
-5.152579e-002 1.227299e-001 2.963531e+000 125 114 97
-5.152579e-002 1.227299e-001 2.963531e+000 125 114 97
-3.174694e-001 4.037427e-001 3.141606e+000 125 115 95
-3.174694e-001 4.037427e-001 3.141606e+000 125 115 95
3.380760e-002 -8.039137e-002 2.802864e+000 125 114 101
3.380760e-002 -8.039137e-002 2.802864e+000 125 114 101
5.969154e-002 -1.217743e-001 2.778075e+000 124 117 99
-4.718770e-002 8.789603e-002 2.927433e+000 118 107 92
-4.718770e-002 8.789603e-002 2.927433e+000 118 107 92
-5.578387e-002 1.048912e-001 2.939466e+000 129 122 106
4.775202e-002 -7.508930e-002 2.820433e+000 125 117 104
-3.899366e-002 1.054925e-001 2.951588e+000 122 112 96
9.014219e-002 1.060435e-001 3.051818e+000 45 37 24
9.014219e-002 1.060435e-001 3.051818e+000 45 37 24
3.865953e-001 -1.667088e-001 2.961275e+000 135 126 109
-6.525697e-002 -3.385187e-002 2.784205e+000 60 48 34
-5.295959e-002 8.901122e-002 2.920343e+000 115 102 87
-5.295959e-002 8.901122e-002 2.920343e+000 115 102 87
1.909238e-001 -1.910035e-001 2.805703e+000 48 45 35
1.909238e-001 -1.910035e-001 2.805703e+000 48 45 35
1.838990e-002 1.566561e-001 3.066369e+000 55 42 33
-3.861901e-002 3.497559e-001 3.272906e+000 62 49 35
-2.686459e-002 3.789129e-001 3.321119e+000 55 43 27
-2.686459e-002 3.789129e-001 3.321119e+000 55 43 27
-6.317920e-003 3.742997e-001 3.356965e+000 60 49 40
1.145778e-002 3.704313e-001 3.338314e+000 53 41 29
7.050666e-003 3.696675e-001 3.343114e+000 53 41 29
-5.921651e-002 4.866963e-001 3.485791e+000 122 114 101
-5.921651e-002 4.866963e-001 3.485791e+000 122 114 101
3.063211e-002 4.584978e-001 3.529685e+000 51 42 27
-3.262803e-001 4.385933e-001 3.164958e+000 131 118 99
-7.283265e-002 3.953434e-001 3.303138e+000 49 39 28
3.570366e-001 -3.900609e-003 3.099891e+000 135 123 107
-4.493591e-002 8.897479e-002 2.936644e+000 47 43 32
2.224750e-002 9.547710e-002 2.986787e+000 130 112 90
-1.304196e-001 2.226189e-001 3.044799e+000 45 42 31
6.796881e-002 -1.312774e-001 2.775335e+000 44 41 32
1.321749e-001 -8.082532e-002 2.874035e+000 46 46 38
3.019944e-002 -6.574190e-002 2.819951e+000 47 47 41
-4.172809e-002 -3.752942e-002 2.818992e+000 130 114 89
2.112054e-002 -2.378072e-001 2.645044e+000 127 116 103
-4.956045e-002 -1.001147e-001 2.738102e+000 50 48 36
2.461046e-002 7.684806e-002 2.961447e+000 132 115 95
-4.581822e-002 1.772810e-001 3.033741e+000 131 115 93
3.202100e-002 3.853118e-001 3.369585e+000 123 116 100
-9.703832e-002 1.566490e-001 2.979638e+000 45 46 38
-4.908547e-002 4.808512e-001 3.477723e+000 120 114 102
-4.914652e-002 4.869801e-001 3.476995e+000 120 114 102
-8.751493e-002 2.083051e-001 3.038787e+000 64 61 53
-1.173088e-001 2.437885e-001 3.071432e+000 104 101 90
4.754986e-001 -1.995056e-001 2.959885e+000 96 87 72
4.754986e-001 -1.995056e-001 2.959885e+000 96 87 72
1.390639e-001 -6.221563e-002 2.892172e+000 44 43 38
3.281631e-001 -5.060971e-002 3.040767e+000 111 99 85
1.076466e-001 -4.417601e-002 2.898156e+000 65 57 42
1.076466e-001 -4.417601e-002 2.898156e+000 65 57 42
3.691706e-001 -3.773141e-002 3.088458e+000 104 94 81
3.678175e-001 -3.807871e-002 3.089250e+000 104 94 81
3.108400e-001 -2.134213e-002 3.062456e+000 102 90 74
3.503118e-001 -9.280766e-003 3.107267e+000 148 136 120
3.503118e-001 -9.280766e-003 3.107267e+000 148 136 120
7.152551e-002 -9.008233e-004 2.911678e+000 41 39 36
-1.108053e-001 -2.749389e-003 2.792392e+000 68 65 56
-1.723288e-001 9.256261e-003 2.782428e+000 3 2 0
-1.723288e-001 9.256261e-003 2.782428e+000 3 2 0
1.361195e-001 -1.267210e-001 2.824013e+000 47 46 40
9.453946e-002 -1.258786e-001 2.797034e+000 47 41 39
5.419641e-002 -6.489786e-002 2.833930e+000 46 47 42
-6.842480e-002 -7.009011e-002 2.753047e+000 131 115 97
2.531462e-002 -2.583770e-002 2.855094e+000 126 111 89
2.545606e-002 -2.538807e-002 2.854592e+000 126 111 89
2.418995e-002 1.025210e-002 2.894906e+000 53 46 40
-2.851911e-002 2.028986e-002 2.867182e+000 46 46 42
-5.034506e-002 6.026527e-002 2.896072e+000 41 40 35
-6.614331e-002 1.238753e-001 2.959763e+000 132 115 95
-1.005761e-001 1.823355e-001 3.004791e+000 128 117 96
-6.822806e-002 3.547758e-001 3.261775e+000 133 115 92
-3.154175e-001 3.798346e-001 3.110774e+000 126 114 92
-3.914165e-001 4.815825e-001 3.202454e+000 129 114 91
4.325282e-001 -2.360314e-001 2.912402e+000 55 50 42
4.325282e-001 -2.360314e-001 2.912402e+000 55 50 42
3.216950e-002 -2.477774e-001 2.648540e+000 52 47 38
1.027917e-001 -2.302290e-001 2.704541e+000 127 113 96
1.027917e-001 -2.302290e-001 2.704541e+000 127 113 96
4.706637e-001 -2.270869e-001 2.975940e+000 133 118 96
4.198645e-001 -2.217334e-001 2.925498e+000 133 121 99
1.429198e-001 -2.048524e-001 2.750034e+000 44 43 37
8.011591e-002 -1.836984e-001 2.735728e+000 128 114 95
1.451183e-001 -1.446899e-001 2.810675e+000 49 45 40
7.362004e-002 -1.315312e-001 2.780290e+000 44 41 38
3.659934e-002 -6.332038e-002 2.814850e+000 48 47 42
3.838487e-002 -6.276704e-002 2.812487e+000 48 47 42
5.327114e-002 -3.606680e-002 2.866585e+000 50 44 37
5.601915e-002 2.076904e-002 2.927247e+000 48 43 37
-3.231275e-003 5.102880e-002 2.918543e+000 126 114 89
-3.013231e-002 4.977176e-002 2.899950e+000 130 118 95
-5.424117e-002 1.089272e-001 2.955146e+000 44 41 34
-5.926344e-002 1.445950e-001 2.986226e+000 127 111 92
-5.926344e-002 1.445950e-001 2.986226e+000 127 111 92
-1.296858e-001 2.241436e-001 3.037726e+000 50 48 41
-6.218923e-002 4.780749e-001 3.456166e+000 130 116 96
1.251879e-001 -2.466335e-001 2.698103e+000 51 46 33
1.274646e-001 -2.447403e-001 2.695407e+000 51 46 33
3.806611e-004 -2.533344e-001 2.631135e+000 52 46 35
-1.487706e-002 -2.610521e-001 2.638085e+000 52 46 35
8.961669e-003 -2.407745e-001 2.634223e+000 127 115 101
7.445207e-003 -2.411214e-001 2.636078e+000 127 115 101
8.314198e-003 -2.260192e-001 2.651324e+000 49 45 34
4.126558e-003 -2.154559e-001 2.659331e+000 129 116 96
9.092272e-002 -1.760553e-001 2.755506e+000 124 115 100
8.068150e-002 -1.701549e-001 2.745165e+000 47 44 35
1.229198e-001 -1.668721e-001 2.772348e+000 49 43 37
3.963673e-002 -1.346094e-001 2.756233e+000 48 44 33
4.447367e-002 -9.070154e-002 2.794842e+000 49 46 44
-4.719628e-002 -8.944310e-002 2.745118e+000 129 113 92
-8.013211e-002 -6.589724e-002 2.746581e+000 124 111 94
5.675827e-002 -5.312580e-002 2.845617e+000 129 116 97
5.675827e-002 -5.312580e-002 2.845617e+000 129 116 97
-6.616314e-002 -5.615827e-002 2.767513e+000 49 44 40
-7.767041e-002 -5.391951e-002 2.755382e+000 50 44 36
4.940784e-002 -4.225452e-002 2.854874e+000 126 114 98
4.940784e-002 -4.225452e-002 2.854874e+000 126 114 98
-1.309230e-002 -1.713288e-002 2.838136e+000 49 43 31
2.100037e-002 -1.338243e-002 2.865186e+000 44 40 31
2.923645e-001 -8.797627e-003 3.085087e+000 133 118 97
2.679525e-001 -1.720905e-002 3.118655e+000 133 118 97
-2.441179e-002 -1.443873e-003 2.852320e+000 44 40 36
1.094097e-003 8.278374e-003 2.880712e+000 126 115 99
-4.086276e-002 1.860180e-002 2.860618e+000 49 43 38
3.119199e-001 4.119444e-002 3.151697e+000 135 120 100
3.148096e-001 4.061102e-002 3.150196e+000 135 120 100
-7.517883e-002 1.091131e-001 2.937541e+000 51 45 35
8.408304e-002 1.190996e-001 3.060308e+000 118 105 87
8.408304e-002 1.190996e-001 3.060308e+000 118 105 87
6.754661e-002 1.271773e-001 3.058243e+000 134 119 98
6.754661e-002 1.271773e-001 3.058243e+000 134 119 98
-8.194625e-002 1.270428e-001 2.949684e+000 50 42 30
-1.158808e-001 1.534287e-001 2.960525e+000 46 39 29
-1.158808e-001 1.534287e-001 2.960525e+000 46 39 29
-1.181809e-001 1.789982e-001 2.988113e+000 47 42 34
-1.181809e-001 1.789982e-001 2.988113e+000 47 42 34
-7.870041e-002 1.819442e-001 3.018255e+000 51 47 38
-1.193479e-001 1.869314e-001 3.003357e+000 124 106 86
-1.171577e-001 1.881098e-001 3.000290e+000 124 106 86
-1.395997e-001 1.990087e-001 2.995175e+000 48 42 34
-1.412522e-001 1.962221e-001 2.997334e+000 48 42 34
-7.906788e-002 2.007961e-001 3.040976e+000 49 43 31
-7.906788e-002 2.007961e-001 3.040976e+000 49 43 31
-1.161396e-001 2.238567e-001 3.045279e+000 113 108 96
-1.103322e-001 2.490942e-001 3.080702e+000 54 47 34
-1.103322e-001 2.490942e-001 3.080702e+000 54 47 34
-6.712659e-002 3.374718e-001 3.239575e+000 47 44 34
-4.273019e-002 3.423842e-001 3.261841e+000 55 45 35
-4.126140e-001 4.847337e-001 3.225065e+000 50 41 29
-1.862406e-001 5.138178e-001 3.404078e+000 55 45 32
-5.244480e-002 -3.013236e-001 2.732136e+000 123 110 95
2.490727e-002 -2.215960e-001 2.660980e+000 46 40 30
1.759873e-002 -2.080843e-001 2.673695e+000 48 42 29
1.022071e-002 -1.988690e-001 2.674935e+000 131 113 96
8.148214e-002 -1.436638e-001 2.771440e+000 53 43 35
6.874270e-002 -1.431437e-001 2.769952e+000 120 113 97
6.874270e-002 -1.431437e-001 2.769952e+000 120 113 97
-3.790263e-002 -1.340075e-001 2.705081e+000 45 38 32
3.397280e-002 -1.192515e-001 2.765135e+000 56 49 39
-5.927977e-002 -1.178447e-001 2.712759e+000 53 44 33
8.134398e-003 -6.550186e-002 2.794074e+000 52 43 43
2.077921e-002 -5.543342e-002 2.818873e+000 120 108 89
4.369357e-002 -5.095126e-002 2.841963e+000 47 44 39
4.053997e-002 -3.183158e-002 2.863671e+000 50 44 37
8.192483e-003 -2.105026e-002 2.848421e+000 52 46 37
2.263812e-002 -4.989996e-003 2.874334e+000 120 110 98
2.236506e-002 -4.746821e-003 2.874427e+000 120 110 98
-1.420174e-002 1.884769e-003 2.858971e+000 130 119 99
-9.312187e-003 6.255884e-002 2.929140e+000 44 36 28
-3.703794e-002 6.067773e-002 2.906916e+000 52 47 38
-4.316317e-002 6.923448e-002 2.913172e+000 127 114 98
-4.316317e-002 6.923448e-002 2.913172e+000 127 114 98
-1.886756e-002 7.970472e-002 2.938897e+000 47 43 36
-4.345463e-002 7.924219e-002 2.920888e+000 45 42 34
-3.805072e-002 8.931268e-002 2.934531e+000 45 38 28
-3.805072e-002 8.931268e-002 2.934531e+000 45 38 28
-5.503963e-002 9.487067e-002 2.932649e+000 52 48 37
-5.503963e-002 9.487067e-002 2.932649e+000 52 48 37
-3.314490e-002 1.041669e-001 2.958349e+000 131 119 105
-3.192645e-002 1.056263e-001 2.957626e+000 131 119 105
-7.758027e-002 1.633418e-001 2.998690e+000 134 118 99
-7.757589e-002 1.633608e-001 2.998649e+000 134 118 99
-1.464092e-001 2.063249e-001 3.002222e+000 46 37 28
-8.496216e-002 3.523691e-001 3.245532e+000 52 39 30
-2.366956e-001 3.506511e-001 3.126786e+000 51 40 33
5.742187e-003 3.795515e-001 3.357865e+000 55 47 35
-1.265485e-002 3.801792e-001 3.343746e+000 52 44 33
-9.606410e-002 4.886910e-001 3.444817e+000 54 45 33
-8.413450e-002 4.897703e-001 3.460472e+000 52 45 35
-7.860186e-002 4.898732e-001 3.460786e+000 52 45 35
-9.114017e-003 -2.473890e-001 2.638983e+000 46 34 21
4.357012e-002 -1.240639e-001 2.765464e+000 129 120 110
7.484199e-002 -1.207731e-001 2.790907e+000 112 109 93
7.489701e-002 -1.209884e-001 2.790979e+000 112 109 93
8.787526e-002 -1.131298e-001 2.805547e+000 121 115 101
-5.227673e-002 -6.563605e-002 2.764479e+000 131 115 99
-5.227673e-002 -6.563605e-002 2.764479e+000 131 115 99
2.596001e-001 -2.029010e-003 3.117397e+000 135 119 103
-1.810477e-002 1.083904e-002 2.877780e+000 116 109 90
2.936176e-001 1.974840e-002 3.091102e+000 137 124 105
2.916569e-001 1.814512e-002 3.094215e+000 137 124 105
-6.376040e-002 1.026604e-001 2.936596e+000 127 118 104
-6.376040e-002 1.026604e-001 2.936596e+000 127 118 104
-1.277968e-001 1.897551e-001 2.992018e+000 131 122 102
-1.105622e-001 1.937995e-001 3.010270e+000 46 38 27
-1.105185e-001 1.951287e-001 3.009203e+000 46 38 27
-8.601409e-002 2.090525e-001 3.047506e+000 45 41 33
-8.772041e-002 2.197854e-001 3.055804e+000 58 48 32
-1.506252e-001 2.514459e-001 3.061230e+000 52 40 29
-4.869979e-002 3.698793e-001 3.295926e+000 127 118 103
-4.911743e-002 3.698838e-001 3.296094e+000 127 118 103
-6.997277e-002 3.752746e-001 3.287555e+000 54 47 31
-1.808111e-005 3.755864e-001 3.348018e+000 127 119 105
-5.848903e-002 4.790224e-001 3.498563e+000 49 41 31
-3.616978e-001 5.067982e-001 3.281610e+000 125 118 97
1.055173e-001 -2.212940e-001 2.713553e+000 76 74 67
1.055173e-001 -2.212940e-001 2.713553e+000 76 74 67
-6.710594e-002 2.231416e-001 3.084187e+000 143 130 113
-1.053591e-001 1.236934e-001 2.936202e+000 142 129 112
