ply
format ascii 1.0
element face 0
property list uchar int vertex_indices
element vertex 894
property float x
property float y
property float z
property uchar diffuse_red
property uchar diffuse_green
property uchar diffuse_blue
end_header
2.792559e-002 -5.649380e-001 3.017297e+000 80 68 54
1.849992e-001 -5.586320e-001 3.126145e+000 74 66 49
1.259697e-001 -5.574821e-001 3.078667e+000 75 62 45
-3.399855e-002 -5.676364e-001 2.934839e+000 122 114 95
9.336261e-002 -5.535702e-001 3.040037e+000 82 70 54
8.234147e-002 -5.560954e-001 3.023880e+000 79 66 50
3.078246e-002 -5.338338e-001 2.901728e+000 95 84 66
1.320527e-003 -5.383080e-001 2.861508e+000 99 88 70
1.040645e-001 -5.142929e-001 2.890072e+000 125 110 89
7.011631e-002 -5.031871e-001 2.834469e+000 124 109 90
1.011209e-001 -4.789189e-001 2.792458e+000 125 110 89
2.017635e-002 -4.570351e-001 2.691834e+000 121 105 82
1.582514e-001 -4.446819e-001 2.714593e+000 119 107 84
1.582514e-001 -4.446819e-001 2.714593e+000 119 107 84
5.518721e-002 -4.448126e-001 2.638919e+000 125 111 87
8.727813e-002 -4.234518e-001 2.589936e+000 121 107 81
8.727813e-002 -4.234518e-001 2.589936e+000 121 107 81
1.872970e-002 -2.255482e-001 2.625592e+000 71 60 52
7.281445e-002 -1.398510e-001 2.762917e+000 146 139 118
7.281445e-002 -1.398510e-001 2.762917e+000 146 139 118
7.281445e-002 -1.398510e-001 2.762917e+000 146 139 118
-3.930849e-002 -7.654747e-002 2.746136e+000 149 140 117
3.504898e-002 -4.403110e-002 2.843011e+000 157 147 122
-1.472776e-003 -9.327683e-003 2.836718e+000 64 61 49
9.062051e-002 4.711981e-004 2.928408e+000 67 62 56
-4.970398e-002 1.162343e-001 2.968295e+000 55 55 44
-6.442655e-002 1.303843e-001 2.952740e+000 71 64 50
-4.975208e-002 1.462212e-001 2.998735e+000 152 142 117
-9.614627e-002 1.868225e-001 3.007369e+000 151 146 118
-1.738164e+000 6.185380e-001 3.924454e+000 104 139 176
-1.738164e+000 6.185380e-001 3.924454e+000 104 139 176
-1.544127e+000 8.986371e-001 3.809358e+000 101 127 142
-1.732825e+000 9.661992e-001 3.747740e+000 120 153 172
4.412675e-001 -6.902547e-001 3.547515e+000 155 150 128
-1.167989e-002 -6.564298e-001 3.189898e+000 166 180 186
-1.127700e-001 -6.459812e-001 3.105915e+000 158 168 176
-6.071707e-002 -6.430894e-001 3.147632e+000 67 73 74
9.194055e-002 -6.074251e-001 3.213277e+000 124 115 98
-7.260769e-002 -6.148837e-001 3.055582e+000 132 121 103
-7.599735e-002 -6.049741e-001 3.050536e+000 87 75 59
-8.773982e-002 -6.060742e-001 3.012615e+000 130 122 104
1.447988e-001 -6.101073e-001 3.071122e+000 86 80 67
1.447988e-001 -6.101073e-001 3.071122e+000 86 80 67
1.546485e-001 -5.733055e-001 3.139471e+000 125 115 97
1.152181e-001 -5.742266e-001 3.112753e+000 91 85 72
1.184668e-001 -5.761272e-001 3.108110e+000 91 85 72
1.191241e-001 -5.712195e-001 3.094395e+000 52 46 32
1.970809e-001 -5.555803e-001 3.144184e+000 80 68 52
5.497036e-002 -5.263668e-001 2.912589e+000 127 112 91
-6.918476e-003 -5.279544e-001 2.853700e+000 129 114 93
-1.329885e-002 -5.307172e-001 2.837675e+000 124 110 87
1.148157e-001 -5.167132e-001 2.937277e+000 119 107 85
1.174910e-001 -5.155809e-001 2.910204e+000 128 113 92
1.399477e-003 -5.196962e-001 2.828539e+000 119 108 89
7.828659e-003 -5.035946e-001 2.777070e+000 129 114 91
-3.142587e-002 -4.993319e-001 2.767689e+000 123 111 89
1.318801e-003 -4.872288e-001 2.720920e+000 122 109 87
1.318801e-003 -4.872288e-001 2.720920e+000 122 109 87
1.848138e-001 -4.773983e-001 2.854381e+000 122 107 86
1.848138e-001 -4.773983e-001 2.854381e+000 122 107 86
3.296558e-002 -4.688894e-001 2.697200e+000 120 105 86
2.148165e-001 -4.598965e-001 2.816532e+000 122 107 85
2.135826e-001 -4.591622e-001 2.818296e+000 122 107 85
2.171644e-001 -4.479120e-001 2.803973e+000 124 109 86
1.669141e-001 -4.483672e-001 2.760881e+000 123 108 85
1.963969e-001 -4.427350e-001 2.736422e+000 124 108 85
1.915354e-001 -4.401165e-001 2.741648e+000 124 108 85
1.835108e-001 -4.297967e-001 2.705519e+000 117 102 81
4.988400e-001 -3.937039e-001 2.814083e+000 142 126 100
4.781350e-001 -3.947163e-001 2.796896e+000 144 128 103
5.081727e-001 -3.920385e-001 2.822907e+000 141 125 100
3.067535e-001 -3.919892e-001 2.674047e+000 133 117 93
3.913292e-001 -1.702249e-001 2.947771e+000 153 139 119
-5.393408e-002 -7.739154e-002 2.732795e+000 150 144 123
-4.561799e-002 -6.209604e-002 2.770857e+000 63 54 42
-4.561799e-002 -6.209604e-002 2.770857e+000 63 54 42
-5.982491e-002 -4.315458e-002 2.770728e+000 68 58 47
-5.434424e-002 -3.451310e-002 2.783750e+000 156 143 125
-6.433514e-003 5.686437e-002 2.925117e+000 150 140 115
-8.987793e-002 1.929945e-001 3.013091e+000 72 65 54
-1.606183e-002 4.396704e-001 3.364230e+000 85 77 58
2.803638e-001 -8.209393e-001 3.320355e+000 193 206 215
2.879095e-001 -7.811134e-001 3.423126e+000 199 211 219
2.623806e-001 -6.783416e-001 3.409912e+000 191 205 214
3.185795e-001 -6.458814e-001 3.493329e+000 192 201 206
3.335947e-001 -6.537632e-001 3.472058e+000 192 201 206
3.204632e-001 -6.503871e-001 3.461368e+000 111 120 127
-1.248951e-001 -6.455575e-001 3.091446e+000 151 159 163
1.288495e-001 -6.152427e-001 3.263202e+000 112 106 90
9.201110e-002 -6.167854e-001 3.232343e+000 130 121 105
7.915888e-002 -6.176951e-001 3.216934e+000 129 120 103
4.742551e-002 -6.125731e-001 3.181040e+000 56 49 36
-5.219932e-002 -6.120173e-001 3.074438e+000 132 120 102
-5.130860e-002 -6.123498e-001 3.074574e+000 132 120 102
1.906082e-001 -5.927656e-001 3.230090e+000 54 48 34
1.906082e-001 -5.927656e-001 3.230090e+000 54 48 34
-1.096525e-002 -5.794404e-001 3.028091e+000 128 117 97
2.528142e-001 -5.616607e-001 3.213036e+000 124 113 96
2.479062e-001 -5.619608e-001 3.161720e+000 130 116 98
2.347853e-001 -5.560583e-001 3.180662e+000 130 116 98
-4.365395e-002 -5.692645e-001 2.927633e+000 79 71 54
2.561770e-001 -4.722694e-001 3.544711e+000 195 202 208
2.625576e-001 -5.233404e-001 3.043300e+000 65 51 33
-9.428862e-004 -5.266060e-001 2.861325e+000 129 114 95
2.262622e-001 -5.124087e-001 3.017992e+000 116 101 82
5.203160e-002 -5.175366e-001 2.885635e+000 123 110 90
9.030755e-002 -5.017626e-001 2.867591e+000 118 105 86
9.485761e-002 -5.044021e-001 2.861282e+000 118 105 86
1.672062e-001 -5.004704e-001 2.905534e+000 124 109 90
9.070142e-002 -4.987894e-001 2.850005e+000 127 111 95
1.604198e-001 -4.947329e-001 2.883212e+000 125 113 90
1.604198e-001 -4.947329e-001 2.883212e+000 125 113 90
1.812306e-001 -4.793566e-001 2.834330e+000 127 115 93
2.279631e-001 -4.660631e-001 2.873712e+000 119 105 86
2.365905e-001 -4.699706e-001 2.862820e+000 119 105 86
2.365905e-001 -4.699706e-001 2.862820e+000 119 105 86
1.478882e-002 -4.677888e-001 2.697259e+000 121 105 86
6.516671e-002 -4.452655e-001 2.652462e+000 126 114 92
6.657628e-002 -4.459459e-001 2.646969e+000 126 114 92
3.201417e-001 -4.348352e-001 2.817083e+000 121 106 87
3.399255e-001 -4.246786e-001 2.790941e+000 126 111 91
3.399255e-001 -4.246786e-001 2.790941e+000 126 111 91
4.315735e-001 -4.220379e-001 2.847727e+000 67 51 27
3.100545e-001 -4.241123e-001 2.764864e+000 127 110 90
3.104806e-001 -4.242331e-001 2.765496e+000 127 110 90
3.899468e-001 -3.919900e-001 2.739017e+000 144 128 105
3.570370e-001 -3.905877e-001 2.714329e+000 135 119 98
8.705372e-002 -1.495930e-001 2.763154e+000 168 161 143
7.484156e-002 -1.152245e-001 2.789277e+000 145 140 122
7.484156e-002 -1.152245e-001 2.789277e+000 145 140 122
8.536853e-002 -1.083561e-001 2.808574e+000 134 130 114
2.219385e-002 2.750674e-003 2.886125e+000 144 140 119
2.219385e-002 2.750674e-003 2.886125e+000 144 140 119
-3.316826e-002 6.849890e-002 2.921019e+000 62 54 43
3.383739e-002 -5.891784e-001 3.071341e+000 131 114 88
6.823117e-003 -6.517668e-001 3.234415e+000 184 194 203
2.361348e-001 -6.891289e-001 3.432446e+000 201 214 223
1.069578e-001 -4.403455e-001 2.697645e+000 124 103 76
3.276009e-001 -4.120444e-001 2.855557e+000 91 82 65
2.595424e-001 -5.228199e-001 3.020204e+000 133 112 86
2.402313e-002 -5.095932e-001 2.765214e+000 119 99 72
2.374130e-001 -8.296359e-001 3.403029e+000 198 210 216
3.378241e-002 -6.405324e-001 3.262066e+000 182 195 203
-8.498015e-002 -6.372231e-001 3.134382e+000 87 97 99
1.387357e-002 -5.465020e-001 2.867021e+000 125 108 84
5.768925e-001 -3.424785e-001 2.979732e+000 143 128 106
2.876368e-002 -7.014367e-001 3.229149e+000 170 187 197
-4.571332e-002 -6.250355e-001 3.118378e+000 131 115 92
-7.538358e-002 -6.275276e-001 3.084984e+000 133 117 92
-1.217483e-001 -6.242158e-001 3.040709e+000 83 70 55
-6.751226e-002 -6.219845e-001 3.071604e+000 107 97 79
-1.549039e-001 -5.557696e-001 2.772210e+000 157 169 173
1.195857e-002 -5.520257e-001 2.844918e+000 106 94 77
7.098959e-003 -5.416016e-001 2.834604e+000 126 109 84
1.029177e-001 -5.306040e-001 2.869175e+000 54 42 18
1.439594e-001 -5.020765e-001 2.864837e+000 124 102 79
2.648352e-001 -4.626287e-001 2.885893e+000 123 108 75
2.648352e-001 -4.626287e-001 2.885893e+000 123 108 75
5.117715e-001 -3.476272e-001 2.928183e+000 142 128 102
2.714930e-001 -3.557107e-001 2.721759e+000 142 125 100
5.605547e-001 -3.419017e-001 2.969234e+000 148 133 108
1.388056e-001 -7.595862e-001 3.324517e+000 196 213 221
1.895944e-001 -5.191282e-001 2.951302e+000 128 110 84
1.183437e-001 -5.071215e-001 2.853437e+000 126 109 77
8.793615e-002 -5.035966e-001 2.809127e+000 120 106 77
2.621871e-001 -4.547563e-001 2.867657e+000 115 99 73
2.479408e-001 -4.549104e-001 2.854815e+000 121 105 78
2.479408e-001 -4.549104e-001 2.854815e+000 121 105 78
1.939195e-001 -4.433164e-001 2.795246e+000 116 99 73
1.939195e-001 -4.433164e-001 2.795246e+000 116 99 73
1.939195e-001 -4.433164e-001 2.795246e+000 116 99 73
1.733764e-001 -4.171120e-001 2.720154e+000 116 100 77
3.068822e-001 -4.021821e-001 2.816306e+000 116 100 74
3.068822e-001 -4.021821e-001 2.816306e+000 116 100 74
2.368188e-001 -7.180552e-001 3.424582e+000 195 208 217
6.279680e-002 -6.208727e-001 3.230806e+000 69 59 47
1.273821e-001 -6.129545e-001 3.265501e+000 131 120 100
-1.460719e-001 -6.142822e-001 2.953416e+000 63 55 37
-1.334973e-001 -6.064108e-001 2.931866e+000 56 47 37
2.189777e-001 -4.469953e-001 3.490524e+000 197 204 210
2.107016e-001 -5.774411e-001 3.161403e+000 59 52 35
1.618287e-001 -5.692227e-001 3.132054e+000 130 116 91
9.319609e-002 -5.621880e-001 2.987544e+000 126 114 92
2.319877e-001 -5.192425e-001 3.010852e+000 129 113 91
-8.235891e-003 -5.268076e-001 2.787565e+000 118 103 79
-2.763368e-002 -5.264743e-001 2.764129e+000 118 103 78
2.279647e-001 -5.162668e-001 2.982057e+000 127 111 86
-2.124415e-002 -5.237194e-001 2.754005e+000 119 103 76
5.577061e-002 -5.142666e-001 2.808807e+000 122 104 79
5.577061e-002 -5.142666e-001 2.808807e+000 122 104 79
1.764973e-001 -4.994740e-001 2.887343e+000 125 109 84
1.356216e-001 -4.810268e-001 2.798305e+000 123 105 81
1.818634e-002 -4.829375e-001 2.692514e+000 118 103 79
2.059318e-001 -4.600596e-001 2.826551e+000 120 106 80
1.840701e-001 -4.599842e-001 2.808329e+000 114 100 74
1.109601e-001 -4.643164e-001 2.742773e+000 114 103 78
2.344251e-001 -4.541958e-001 2.841651e+000 121 105 79
2.197001e-001 -4.543903e-001 2.828054e+000 114 100 71
2.197001e-001 -4.543903e-001 2.828054e+000 114 100 71
1.872818e-001 -4.538068e-001 2.804685e+000 116 100 72
1.757611e-001 -4.550436e-001 2.789351e+000 116 103 76
1.757611e-001 -4.550436e-001 2.789351e+000 116 103 76
3.279876e-002 -4.536152e-001 2.656112e+000 50 39 28
1.269291e-001 -4.484678e-001 2.732165e+000 119 102 79
1.269291e-001 -4.484678e-001 2.732165e+000 119 102 79
1.634720e-001 -4.307980e-001 2.732297e+000 122 104 80
5.111600e-002 -4.272087e-001 2.627362e+000 44 36 25
2.182886e-001 -4.216305e-001 2.766345e+000 120 106 80
2.237936e-001 -4.210997e-001 2.769704e+000 121 107 84
2.237936e-001 -4.210997e-001 2.769704e+000 121 107 84
1.291584e-001 -4.197389e-001 2.691832e+000 119 101 77
1.291584e-001 -4.197389e-001 2.691832e+000 119 101 77
3.161137e-001 -4.116621e-001 2.838460e+000 122 107 84
1.457543e-001 -4.128167e-001 2.688945e+000 51 35 25
3.390128e-001 -4.004418e-001 2.839555e+000 120 105 78
3.390128e-001 -4.004418e-001 2.839555e+000 120 105 78
2.458356e-001 -4.017255e-001 2.761288e+000 114 98 72
2.458356e-001 -4.017255e-001 2.761288e+000 114 98 72
2.369376e-001 -4.021000e-001 2.752507e+000 121 105 79
2.369376e-001 -4.021000e-001 2.752507e+000 121 105 79
1.807599e-001 -3.997837e-001 2.696443e+000 57 45 28
6.937967e-002 -4.006002e-001 2.598590e+000 59 42 30
6.937967e-002 -4.006002e-001 2.598590e+000 59 42 30
2.683593e-001 -7.748963e-001 3.450923e+000 201 215 225
2.705907e-001 -7.581346e-001 3.451462e+000 200 217 227
1.354870e-001 -7.390561e-001 3.322946e+000 192 209 217
1.367982e-001 -7.261961e-001 3.329912e+000 192 206 215
3.082948e-001 -6.164517e-001 3.512511e+000 191 200 207
-9.624884e-002 -6.398633e-001 3.128721e+000 151 163 169
1.410640e-001 -6.114785e-001 3.277860e+000 134 123 103
1.030383e-001 -6.142564e-001 3.241074e+000 132 124 101
-8.309918e-002 -6.239645e-001 3.068908e+000 125 114 96
-3.991267e-002 -6.007472e-001 3.025449e+000 135 123 101
-6.541775e-003 -5.962934e-001 3.018909e+000 135 121 102
-8.923712e-002 -5.938245e-001 2.924665e+000 133 120 102
-7.043612e-002 -5.923386e-001 2.936395e+000 134 119 98
-7.043612e-002 -5.923386e-001 2.936395e+000 134 119 98
7.606232e-003 -5.879374e-001 3.003864e+000 128 115 96
1.530869e-001 -5.754153e-001 3.108892e+000 128 115 96
1.979044e-001 -5.716365e-001 3.146522e+000 128 115 96
-6.603299e-002 -5.853080e-001 2.909267e+000 127 112 93
-7.602904e-002 -5.853325e-001 2.902918e+000 125 112 93
8.997005e-003 -5.745369e-001 2.949484e+000 122 108 89
1.074878e-001 -5.619769e-001 3.000772e+000 119 108 83
7.062394e-002 -5.629855e-001 2.962882e+000 130 115 92
2.980926e-002 -5.654016e-001 2.923795e+000 118 105 86
1.722082e-001 -5.530178e-001 3.049260e+000 130 114 91
-7.570772e-003 -5.570610e-001 2.889676e+000 125 109 90
2.098241e-003 -5.625471e-001 2.875548e+000 124 109 86
5.481463e-002 -5.525218e-001 2.915324e+000 117 106 88
5.481463e-002 -5.525218e-001 2.915324e+000 117 106 88
1.246824e-002 -5.521491e-001 2.879010e+000 128 113 93
8.737227e-002 -5.537660e-001 2.925358e+000 126 110 85
3.182069e-002 -5.327130e-001 2.839897e+000 125 108 88
2.629366e-002 -5.324453e-001 2.835675e+000 115 100 79
-4.493062e-002 -5.337983e-001 2.778738e+000 49 38 20
1.711384e-001 -5.276431e-001 2.956437e+000 58 43 24
1.711384e-001 -5.276431e-001 2.956437e+000 58 43 24
-1.289362e-002 -5.318947e-001 2.800574e+000 127 111 89
2.021114e-001 -5.229590e-001 2.981121e+000 123 111 89
1.604294e-001 -5.126707e-001 2.905380e+000 122 107 86
1.090961e-001 -4.897929e-001 2.803931e+000 127 107 80
1.846545e-001 -4.772026e-001 2.844901e+000 116 100 76
2.746355e-001 -4.677617e-001 2.913303e+000 122 106 83
1.854573e-001 -4.708878e-001 2.833195e+000 122 107 88
2.760228e-001 -4.548394e-001 2.892267e+000 47 36 19
2.760228e-001 -4.548394e-001 2.892267e+000 47 36 19
1.187083e-001 -4.596311e-001 2.743964e+000 45 32 15
2.677367e-001 -4.524171e-001 2.871979e+000 123 108 81
2.557609e-001 -4.534158e-001 2.858370e+000 127 112 85
1.169293e-001 -4.558974e-001 2.737272e+000 121 106 82
1.086480e-001 -4.565053e-001 2.728168e+000 121 105 80
1.086480e-001 -4.565053e-001 2.728168e+000 121 105 80
1.180296e-001 -4.491275e-001 2.723425e+000 117 100 78
1.180296e-001 -4.491275e-001 2.723425e+000 117 100 78
1.544019e-001 -4.342304e-001 2.743059e+000 120 101 77
7.052850e-002 -4.399193e-001 2.658985e+000 117 101 82
7.052850e-002 -4.399193e-001 2.658985e+000 117 101 82
1.729731e-001 -4.297062e-001 2.739121e+000 122 107 83
2.855226e-001 -4.186229e-001 2.830856e+000 119 103 84
2.390376e-001 -4.209107e-001 2.786701e+000 112 98 77
2.671261e-001 -4.163677e-001 2.804308e+000 117 102 81
2.671261e-001 -4.163677e-001 2.804308e+000 117 102 81
1.908391e-001 -4.178215e-001 2.731782e+000 118 103 81
1.908391e-001 -4.178215e-001 2.731782e+000 118 103 81
6.961268e-002 -4.169474e-001 2.632192e+000 122 110 88
2.724237e-001 -4.096502e-001 2.798428e+000 115 100 80
3.205029e-001 -4.062502e-001 2.837884e+000 116 104 82
2.380593e-001 -4.052417e-001 2.761060e+000 59 44 25
2.380593e-001 -4.052417e-001 2.761060e+000 59 44 25
1.524111e-001 -4.086514e-001 2.683550e+000 107 94 76
1.524111e-001 -4.086514e-001 2.683550e+000 107 94 76
2.006346e-001 -4.023998e-001 2.719452e+000 119 101 76
1.921903e-001 -4.018229e-001 2.713452e+000 123 106 87
2.753994e-001 -7.548426e-001 3.456282e+000 199 213 222
2.225342e-001 -7.396318e-001 3.411353e+000 188 203 212
-6.653674e-002 -6.733429e-001 3.145133e+000 175 190 197
9.085480e-002 -6.175488e-001 3.267503e+000 71 63 43
9.367921e-002 -6.195840e-001 3.255893e+000 138 127 110
9.367921e-002 -6.195840e-001 3.255893e+000 138 127 110
8.977522e-002 -6.148825e-001 3.227821e+000 135 126 104
8.977522e-002 -6.148825e-001 3.227821e+000 135 126 104
1.777907e-001 -6.066238e-001 3.309738e+000 72 62 52
1.151294e-001 -6.098876e-001 3.248087e+000 65 55 42
-9.074291e-003 -6.201320e-001 3.130006e+000 128 118 103
-9.074291e-003 -6.201320e-001 3.130006e+000 128 118 103
1.368035e-002 -6.166702e-001 3.150167e+000 82 69 51
-2.345781e-002 -6.180735e-001 3.112045e+000 63 51 36
1.519967e-001 -6.064635e-001 3.264907e+000 122 117 101
-3.794162e-002 -6.132784e-001 3.067774e+000 71 58 41
1.966192e-001 -5.777975e-001 3.276725e+000 135 120 100
-3.162182e-002 -6.072184e-001 3.031283e+000 135 119 95
-6.723026e-002 -6.029560e-001 2.970320e+000 130 115 96
-5.493226e-002 -5.908822e-001 2.955183e+000 137 122 103
1.765289e-001 -5.751786e-001 3.140472e+000 119 106 88
2.665621e-001 -5.729310e-001 3.213180e+000 73 61 45
2.249407e-001 -5.735030e-001 3.177017e+000 61 49 33
-5.030377e-003 -5.830019e-001 2.966553e+000 132 117 98
1.260952e-001 -5.754721e-001 3.075995e+000 133 120 100
1.260952e-001 -5.754721e-001 3.075995e+000 133 120 100
2.106679e-001 -5.680987e-001 3.136552e+000 127 115 99
2.825211e-001 -5.629408e-001 3.201297e+000 128 117 99
1.990302e-001 -5.676553e-001 3.126155e+000 117 109 94
1.885461e-001 -5.633774e-001 3.106016e+000 125 111 90
1.420084e-002 -5.658423e-001 2.913062e+000 122 107 88
1.420084e-002 -5.658423e-001 2.913062e+000 122 107 88
-5.534021e-002 -5.643183e-001 2.852108e+000 132 118 97
1.131571e-001 -5.578980e-001 2.992476e+000 122 111 89
1.824221e-002 -5.346214e-001 2.825075e+000 129 114 93
1.145915e-001 -5.270201e-001 2.900047e+000 58 42 24
1.529722e-001 -5.246517e-001 2.928034e+000 59 45 22
2.369524e-001 -5.192515e-001 3.001485e+000 128 113 91
2.078728e-001 -5.183020e-001 2.977247e+000 123 109 86
-2.214637e-003 -5.289424e-001 2.791880e+000 50 33 13
9.903240e-002 -5.235351e-001 2.872731e+000 117 105 81
-2.100046e-002 -5.226952e-001 2.766512e+000 56 41 27
1.292505e-001 -5.080378e-001 2.860002e+000 42 29 7
5.763435e-003 -5.064172e-001 2.741650e+000 55 42 25
5.763435e-003 -5.064172e-001 2.741650e+000 55 42 25
4.313936e-004 -5.062064e-001 2.736293e+000 47 34 18
7.676850e-002 -4.916224e-001 2.770212e+000 40 29 17
7.676850e-002 -4.916224e-001 2.770212e+000 40 29 17
8.519688e-002 -4.911845e-001 2.777032e+000 35 27 17
8.315120e-002 -4.877756e-001 2.760819e+000 53 41 24
1.800564e-001 -4.817744e-001 2.845884e+000 52 36 21
1.800564e-001 -4.817744e-001 2.845884e+000 52 36 21
1.952324e-001 -4.766395e-001 2.853485e+000 116 101 79
9.375657e-002 -4.810381e-001 2.765049e+000 40 32 16
3.252777e-001 -4.682367e-001 2.966799e+000 65 52 38
3.252777e-001 -4.682367e-001 2.966799e+000 65 52 38
4.731735e-002 -4.762765e-001 2.715347e+000 56 44 28
4.731735e-002 -4.762765e-001 2.715347e+000 56 44 28
2.739078e-001 -4.641589e-001 2.907754e+000 43 35 18
2.739078e-001 -4.641589e-001 2.907754e+000 43 35 18
2.047860e-001 -4.687913e-001 2.844370e+000 120 107 89
2.047860e-001 -4.687913e-001 2.844370e+000 120 107 89
2.344201e-001 -4.639978e-001 2.868083e+000 129 117 95
2.344201e-001 -4.639978e-001 2.868083e+000 129 117 95
1.357887e-001 -4.629398e-001 2.765792e+000 119 106 81
2.733929e-001 -4.557733e-001 2.886280e+000 130 113 98
4.558757e-002 -4.661426e-001 2.683136e+000 48 34 15
3.894288e-002 -4.649224e-001 2.677766e+000 53 40 23
5.203976e-002 -4.609370e-001 2.685376e+000 110 97 75
5.203976e-002 -4.609370e-001 2.685376e+000 110 97 75
1.802718e-001 -4.435054e-001 2.777733e+000 37 26 9
1.802718e-001 -4.435054e-001 2.777733e+000 37 26 9
1.723455e-001 -4.456876e-001 2.766804e+000 37 29 10
5.222229e-002 -4.441524e-001 2.657837e+000 49 36 19
7.578250e-002 -4.358369e-001 2.660534e+000 54 42 24
6.082567e-002 -4.341681e-001 2.643544e+000 50 39 18
6.269420e-002 -4.291731e-001 2.643110e+000 110 99 78
6.269420e-002 -4.291731e-001 2.643110e+000 110 99 78
2.469216e-001 -4.220048e-001 2.792778e+000 121 109 86
1.970753e-001 -4.227397e-001 2.750166e+000 120 105 84
2.589046e-001 -4.175785e-001 2.797555e+000 118 106 83
1.358797e-001 -4.218752e-001 2.694035e+000 51 37 24
3.354619e-001 -4.158939e-001 2.859191e+000 49 37 21
2.113818e-001 -4.193838e-001 2.753146e+000 51 39 21
6.394660e-002 -4.209930e-001 2.633304e+000 50 36 21
2.846872e-001 -4.134193e-001 2.812386e+000 54 40 28
2.846872e-001 -4.134193e-001 2.812386e+000 54 40 28
8.966176e-002 -4.153875e-001 2.639889e+000 62 46 26
2.785134e-001 -4.066238e-001 2.798121e+000 55 39 22
2.661817e-001 -4.093044e-001 2.784402e+000 50 37 16
1.427025e-001 -4.109127e-001 2.683019e+000 109 98 78
8.079595e-002 -4.139285e-001 2.629126e+000 116 100 77
1.922671e-001 -4.080373e-001 2.716179e+000 62 45 26
1.618418e-001 -4.049073e-001 2.690534e+000 49 35 18
1.618418e-001 -4.049073e-001 2.690534e+000 49 35 18
1.505363e-001 -4.026126e-001 2.679356e+000 43 31 12
1.505363e-001 -4.026126e-001 2.679356e+000 43 31 12
-1.277888e-001 2.320999e-001 3.040775e+000 45 42 31
-7.739681e-004 -9.295528e-002 2.766660e+000 130 113 93
-3.532641e-002 -2.138909e-001 2.648860e+000 124 108 85
-1.878771e-002 -1.759410e-001 2.686772e+000 121 113 102
-5.719061e-002 -1.498135e-001 2.678861e+000 128 114 88
3.742975e-001 -1.152389e-001 2.984215e+000 94 80 70
3.742975e-001 -1.152389e-001 2.984215e+000 94 80 70
-1.040842e-001 -6.153322e-002 2.735851e+000 128 116 94
-1.167707e-001 2.493403e-001 3.070918e+000 104 101 90
4.060113e-001 -6.450071e-001 3.492817e+000 190 203 210
4.547975e-001 -1.703666e-001 2.983576e+000 99 87 71
4.547975e-001 -1.703666e-001 2.983576e+000 99 87 71
4.403127e-001 -1.391483e-001 3.005672e+000 133 122 104
1.464483e-001 -1.044055e-001 2.849647e+000 56 48 37
3.145923e-001 -1.316996e-002 3.062111e+000 102 90 74
4.187010e-002 3.005504e-002 2.914921e+000 133 117 94
1.548558e-001 -2.435393e-001 2.736118e+000 46 42 33
2.101609e-001 -1.865852e-001 2.803272e+000 48 45 40
-2.633999e-002 -1.481102e-001 2.700938e+000 136 120 94
1.728186e-001 -1.097971e-001 2.854193e+000 45 43 38
1.212935e-002 -6.235318e-002 2.803273e+000 51 47 36
9.965881e-002 3.005292e-002 2.948945e+000 42 40 35
-6.641705e-002 1.020762e-001 2.916839e+000 46 42 34
-2.556865e-002 1.370334e-001 2.983843e+000 128 112 89
-5.064583e-002 1.569976e-001 3.002110e+000 47 44 36
-9.698617e-002 1.910669e-001 3.002169e+000 128 117 96
-3.426248e-001 4.161959e-001 3.140517e+000 128 113 89
4.901389e-001 -2.259774e-001 2.942855e+000 60 50 40
2.188210e-001 -2.042231e-001 2.793328e+000 51 49 44
1.778343e-001 -1.998411e-001 2.769003e+000 48 46 43
9.295128e-002 -1.374275e-001 2.782616e+000 136 124 101
9.831765e-002 -1.071488e-001 2.813843e+000 52 43 37
4.884330e-003 -3.750797e-002 2.825530e+000 50 44 35
4.884330e-003 -3.750797e-002 2.825530e+000 50 44 35
-9.722800e-002 -3.396384e-002 2.768593e+000 54 48 38
1.043494e-001 -2.081284e-002 2.905267e+000 58 51 41
3.818225e-002 -8.860231e-003 2.872138e+000 46 45 41
-2.824123e-002 5.493614e-002 2.898573e+000 130 118 95
-7.157769e-003 8.653449e-002 2.948149e+000 50 42 35
-4.146224e-002 1.003173e-001 2.940287e+000 50 50 42
-4.146224e-002 1.003173e-001 2.940287e+000 50 50 42
2.487344e-001 -4.787705e-001 3.503595e+000 175 185 194
-1.325370e-003 -2.310971e-001 2.645792e+000 122 110 94
1.078798e-004 -2.324990e-001 2.645394e+000 122 110 94
1.004017e-001 -2.001411e-001 2.732318e+000 54 53 41
9.757975e-002 -2.030834e-001 2.734832e+000 54 53 41
1.189765e-001 -1.793612e-001 2.757167e+000 52 39 32
1.112571e-001 -1.491133e-001 2.781231e+000 46 41 35
5.811572e-002 -1.506899e-001 2.748868e+000 131 114 97
5.811572e-002 -1.506899e-001 2.748868e+000 131 114 97
8.429953e-003 -4.748830e-002 2.816790e+000 42 41 34
3.653107e-001 -2.690974e-002 3.080902e+000 70 59 42
-4.040319e-002 2.319720e-002 2.859789e+000 49 43 38
-6.230133e-002 6.442724e-002 2.888672e+000 52 45 33
-6.084550e-002 6.646066e-002 2.886428e+000 52 45 33
-5.191421e-002 1.274288e-001 2.963416e+000 132 116 100
-5.191421e-002 1.274288e-001 2.963416e+000 132 116 100
-8.162381e-002 1.314103e-001 2.949519e+000 50 42 30
-6.178390e-002 1.449491e-001 2.969181e+000 51 48 35
-6.178390e-002 1.449491e-001 2.969181e+000 51 48 35
-4.341995e-002 1.488941e-001 2.995568e+000 49 42 32
-1.590011e-001 2.383221e-001 3.019007e+000 50 43 34
2.682831e-001 -5.245375e-001 3.489620e+000 179 189 199
3.961685e-001 -1.579092e-001 2.953827e+000 129 116 99
4.474549e-001 -1.533294e-001 3.003402e+000 133 120 103
-4.156324e-003 -1.617637e-001 2.702608e+000 45 37 22
-3.912756e-002 -1.648937e-001 2.682210e+000 52 45 31
6.693678e-002 -1.270371e-001 2.768209e+000 51 45 38
8.347021e-002 -1.245309e-001 2.786147e+000 48 46 36
5.918688e-002 -1.187194e-001 2.777650e+000 122 112 97
6.599294e-002 -1.162721e-001 2.784636e+000 50 43 33
4.945774e-002 -1.174624e-001 2.773896e+000 47 42 33
5.741926e-002 -1.018738e-001 2.791973e+000 50 38 28
7.289112e-002 -8.591070e-002 2.818123e+000 49 40 33
7.301119e-002 -8.719148e-002 2.818906e+000 49 40 33
-6.222461e-002 -8.582126e-002 2.730167e+000 124 114 97
3.886871e-001 -6.320936e-002 3.059175e+000 136 124 109
3.886871e-001 -6.320936e-002 3.059175e+000 136 124 109
-8.136737e-002 -7.357028e-002 2.739680e+000 42 34 21
2.856919e-002 -5.994281e-002 2.808549e+000 52 47 44
2.159288e-002 -5.062046e-002 2.818025e+000 120 108 89
1.945783e-002 -4.441185e-002 2.820313e+000 122 109 94
1.799686e-002 -4.570155e-002 2.822974e+000 122 109 94
-8.616897e-002 -5.056853e-002 2.747792e+000 46 44 32
3.523817e-002 -4.462126e-002 2.836818e+000 139 133 116
3.523817e-002 -4.462126e-002 2.836818e+000 139 133 116
1.007619e-002 -1.519776e-002 2.846248e+000 52 46 37
-5.059714e-003 -1.149600e-002 2.846772e+000 127 113 94
-9.399392e-002 -7.818433e-003 2.795994e+000 128 116 100
-9.103674e-002 -4.026529e-003 2.790850e+000 128 116 100
-1.318861e-002 6.505063e-003 2.858001e+000 130 119 99
1.241868e-002 1.825192e-002 2.880370e+000 121 110 99
1.241868e-002 1.825192e-002 2.880370e+000 121 110 99
-1.359415e-002 6.077840e-002 2.905311e+000 50 39 26
-4.769438e-002 7.683685e-002 2.899589e+000 51 43 32
-4.209407e-002 8.453985e-002 2.919688e+000 45 42 34
-3.077660e-002 1.004421e-001 2.948497e+000 50 46 36
-1.017936e-001 2.242332e-001 3.045038e+000 47 38 31
-1.455834e-001 2.386390e-001 3.027703e+000 48 42 33
-1.186461e-001 2.563302e-001 3.075491e+000 52 46 32
-2.368727e-001 3.573864e-001 3.126399e+000 51 40 33
-1.142335e-002 -2.476149e-001 2.640118e+000 46 34 21
6.582434e-003 -1.884162e-001 2.682875e+000 51 43 29
6.582434e-003 -1.884162e-001 2.682875e+000 51 43 29
4.753775e-003 -1.759308e-001 2.693221e+000 48 37 22
8.854908e-002 -1.088910e-001 2.804425e+000 121 115 101
4.132759e-001 -8.521280e-002 3.041856e+000 135 120 102
4.132759e-001 -8.521280e-002 3.041856e+000 135 120 102
3.835368e-002 -9.641263e-002 2.783187e+000 136 124 107
-4.521104e-002 -6.843417e-002 2.757203e+000 42 30 15
-4.521104e-002 -6.843417e-002 2.757203e+000 42 30 15
-9.501443e-002 -4.819348e-002 2.744615e+000 115 103 84
-6.382031e-002 -2.857164e-002 2.782181e+000 62 49 33
-6.393102e-002 -2.779418e-002 2.781374e+000 62 49 33
-7.496166e-002 -9.495931e-003 2.792957e+000 40 25 6
-9.499525e-002 4.663898e-003 2.793356e+000 37 28 14
-9.499525e-002 4.663898e-003 2.793356e+000 37 28 14
2.812583e-001 4.545818e-002 3.086378e+000 71 58 42
-3.704878e-002 1.125453e-001 2.949414e+000 128 118 105
8.209280e-002 1.273150e-001 3.036517e+000 63 51 37
8.209280e-002 1.273150e-001 3.036517e+000 63 51 37
9.663683e-002 1.282958e-001 3.070947e+000 56 44 31
-8.924576e-002 1.933584e-001 3.016289e+000 133 121 103
-1.358870e-001 2.132143e-001 3.019587e+000 34 28 20
-1.039720e-001 2.374985e-001 3.058669e+000 46 40 32
-1.342122e-001 2.605981e-001 3.069144e+000 55 47 29
-1.342122e-001 2.605981e-001 3.069144e+000 55 47 29
-1.486274e-001 2.590061e-001 3.058573e+000 52 40 29
-7.534940e-002 3.763461e-001 3.282280e+000 53 44 36
-8.763657e-002 4.965470e-001 3.459975e+000 132 124 109
-6.935319e-002 4.953150e-001 3.494753e+000 48 39 24
-4.623479e-002 9.170155e-002 2.937167e+000 55 52 47
1.168107e-001 -1.236236e-001 2.811686e+000 138 122 106
2.004505e-001 -2.308619e-001 2.746291e+000 54 54 49
2.817692e-001 3.691524e-002 3.100288e+000 95 85 74
2.821417e-001 3.776693e-002 3.099722e+000 95 85 74
4.350851e-001 -1.414931e-001 3.008849e+000 134 125 110
-3.136946e-001 3.800263e-001 3.087573e+000 59 56 46
5.619778e-003 -1.017676e-002 2.856697e+000 58 54 51
5.619778e-003 -1.017676e-002 2.856697e+000 58 54 51
3.488108e-002 -6.036034e-002 2.818901e+000 60 63 57
-4.379387e-002 9.896464e-002 2.941631e+000 54 54 48
-2.660129e-002 5.840631e-002 2.917974e+000 55 56 51
1.050059e-001 -1.734491e-001 2.749720e+000 139 125 109
9.552781e-002 -4.358841e-002 2.877057e+000 54 53 53
7.726945e-002 2.129853e-002 2.932733e+000 108 99 90
-6.779242e-002 -9.643906e-002 2.724325e+000 57 55 51
-1.684628e-001 2.195104e-001 3.013502e+000 141 131 114
-3.591823e-002 3.874622e-002 2.884319e+000 57 56 52
-4.612145e-002 1.293478e-001 2.978784e+000 53 53 48
-1.031236e-001 2.341950e-001 3.069338e+000 55 55 49
-2.725386e-002 1.135713e-001 2.974432e+000 62 62 54
4.224018e-002 3.877476e-003 2.889387e+000 144 132 116
-6.445143e-002 -8.942403e-002 2.734194e+000 128 118 105
-3.772719e-001 4.786709e-001 3.178040e+000 133 124 105
6.003546e-003 -6.316543e-002 2.799221e+000 57 53 48
6.003546e-003 -6.316543e-002 2.799221e+000 57 53 48
2.372603e-002 -7.639129e-002 2.797540e+000 53 52 47
4.280847e-002 -1.034686e-001 2.780902e+000 62 53 44
-5.875223e-003 6.871912e-003 2.867506e+000 56 53 47
-5.559054e-003 7.017583e-003 2.867061e+000 56 53 47
2.830042e-002 -4.929116e-002 2.827521e+000 52 51 49
3.980337e-002 -4.998244e-002 2.830466e+000 136 129 116
-2.361542e-002 7.201160e-002 2.929921e+000 142 131 117
4.636289e-002 -4.658615e-002 2.840181e+000 56 51 48
-3.328702e-002 9.705603e-002 2.951024e+000 59 54 49
-3.355653e-002 1.087873e-001 2.957560e+000 136 130 111
2.269504e-002 3.326962e-002 2.910613e+000 59 56 47
-4.524806e-002 4.987279e-001 3.487556e+000 69 65 54
3.599287e-001 -1.164995e-001 2.986836e+000 74 67 54
-8.779419e-002 2.152561e-002 2.811773e+000 66 60 47
-1.675534e-001 2.440093e-001 3.028099e+000 55 53 49
2.888438e-002 -9.102044e-002 2.787776e+000 63 54 47
2.888438e-002 -9.102044e-002 2.787776e+000 63 54 47
-4.715986e-002 4.947804e-002 2.896022e+000 63 55 47
4.289241e-002 -1.031312e-001 2.780944e+000 61 52 43
-8.264183e-002 1.472922e-001 2.979250e+000 137 130 113
-8.264183e-002 1.472922e-001 2.979250e+000 137 130 113
-3.077591e-002 7.264069e-002 2.919424e+000 62 55 45
8.713820e-002 -1.460744e-001 2.763171e+000 128 122 109
-8.855947e-002 1.951439e-001 3.026164e+000 143 131 114
-1.120949e-001 2.450566e-001 3.065893e+000 125 122 107
-1.131359e-001 2.428850e-001 3.067555e+000 125 122 107
-2.997308e-005 5.987040e-002 2.923553e+000 134 123 103
-3.817474e-002 1.222302e-001 2.977196e+000 133 124 113
1.171492e-001 -1.670247e-001 2.762663e+000 136 130 118
-1.387483e-001 3.555478e-001 3.201823e+000 144 133 111
2.810869e-001 6.427344e-003 3.087215e+000 144 135 118
-7.475467e-002 -5.319558e-002 2.763348e+000 57 53 46
-5.627875e-002 -9.070908e-002 2.737438e+000 118 114 103
-3.013718e-001 3.688045e-001 3.087068e+000 59 49 37
-7.266663e-002 8.806767e-002 2.916850e+000 123 117 107
-7.266663e-002 8.806767e-002 2.916850e+000 123 117 107
-1.332482e-001 2.196458e-001 3.025687e+000 123 119 107
-1.332482e-001 2.196458e-001 3.025687e+000 123 119 107
5.388495e-002 -9.403944e-002 2.795941e+000 134 126 113
-1.256964e-001 2.391653e-001 3.047942e+000 53 48 43
-1.640469e-002 4.890883e-002 2.906148e+000 131 124 108
9.689060e-002 -6.116304e-002 2.857375e+000 128 123 107
1.499029e-001 -1.214722e-001 2.831511e+000 58 56 47
1.499029e-001 -1.214722e-001 2.831511e+000 58 56 47
1.632482e-001 -1.193420e-001 2.836573e+000 60 56 47
1.950314e-001 -1.823633e-001 2.799043e+000 58 55 46
-3.875064e-002 3.620963e-001 3.281959e+000 57 47 38
-3.875064e-002 3.620963e-001 3.281959e+000 57 47 38
-1.407175e-002 5.000369e-001 3.515974e+000 73 63 51
-1.407175e-002 5.000369e-001 3.515974e+000 73 63 51
2.180963e-001 -2.241775e-001 2.762009e+000 43 44 38
2.180963e-001 -2.241775e-001 2.762009e+000 43 44 38
-5.634839e-002 4.707299e-001 3.496196e+000 130 124 113
1.133311e-001 -2.106062e-001 2.714287e+000 48 47 42
1.572032e-001 -1.868872e-001 2.764511e+000 135 120 100
8.510246e-002 6.311031e-002 2.969577e+000 48 46 43
-1.304201e-001 1.992806e-001 3.005198e+000 46 41 35
-5.116036e-002 1.275648e-001 2.963068e+000 125 114 97
-5.116036e-002 1.275648e-001 2.963068e+000 125 114 97
-3.181158e-001 4.093184e-001 3.141707e+000 125 115 95
-3.181158e-001 4.093184e-001 3.141707e+000 125 115 95
3.461200e-002 -7.586527e-002 2.801534e+000 125 114 101
3.461200e-002 -7.586527e-002 2.801534e+000 125 114 101
6.048234e-002 -1.175282e-001 2.776839e+000 124 117 99
-4.680513e-002 9.265118e-002 2.926827e+000 118 107 92
-4.680513e-002 9.265118e-002 2.926827e+000 118 107 92
-5.544927e-002 1.096650e-001 2.938935e+000 129 122 106
4.862930e-002 -7.052097e-002 2.819137e+000 125 117 104
-3.858159e-002 1.102945e-001 2.951078e+000 122 112 96
9.116426e-002 1.111352e-001 3.051372e+000 45 37 24
9.116426e-002 1.111352e-001 3.051372e+000 45 37 24
3.888379e-001 -1.620914e-001 2.960180e+000 135 126 109
-6.493235e-002 -2.939591e-002 2.782988e+000 60 48 34
-5.260916e-002 9.376298e-002 2.919734e+000 115 102 87
-5.260916e-002 9.376298e-002 2.919734e+000 115 102 87
1.924136e-001 -1.865965e-001 2.804125e+000 48 45 35
1.924136e-001 -1.865965e-001 2.804125e+000 48 45 35
1.894400e-002 1.614763e-001 3.066346e+000 55 42 33
-3.808600e-002 3.554380e-001 3.273445e+000 62 49 35
-2.649637e-002 3.842500e-001 3.322127e+000 55 43 27
-2.649637e-002 3.842500e-001 3.322127e+000 55 43 27
-6.014503e-003 3.793727e-001 3.358270e+000 60 49 40
1.216583e-002 3.761778e-001 3.339134e+000 53 41 29
7.933063e-003 3.757237e-001 3.343606e+000 53 41 29
-5.862631e-002 4.928132e-001 3.487081e+000 122 114 101
-5.862631e-002 4.928132e-001 3.487081e+000 122 114 101
3.064251e-002 4.632030e-001 3.532284e+000 51 42 27
-3.273117e-001 4.441436e-001 3.165499e+000 131 118 99
-7.215775e-002 4.012792e-001 3.303546e+000 49 39 28
3.591139e-001 1.049986e-003 3.099444e+000 135 123 107
-4.438949e-002 9.393606e-002 2.935828e+000 47 43 32
2.759573e-002 1.027668e-001 2.983226e+000 130 112 90
-1.276142e-001 2.311029e-001 3.040803e+000 45 42 31
6.892796e-002 -1.268708e-001 2.773902e+000 44 41 32
1.334215e-001 -7.621424e-002 2.872892e+000 46 46 38
3.100564e-002 -6.122253e-002 2.818735e+000 47 47 41
-4.131567e-002 -3.298123e-002 2.817977e+000 130 114 89
2.164092e-002 -2.340825e-001 2.643523e+000 127 116 103
-4.910023e-002 -9.575698e-002 2.736612e+000 50 48 36
2.543485e-002 8.186282e-002 2.960675e+000 132 115 95
-4.527045e-002 1.825037e-001 3.033223e+000 131 115 93
3.014150e-002 3.879389e-001 3.372663e+000 123 116 100
-9.671316e-002 1.617483e-001 2.979002e+000 45 46 38
-4.899222e-002 4.864485e-001 3.479222e+000 120 114 102
-4.900410e-002 4.928042e-001 3.478362e+000 120 114 102
-8.708775e-002 2.136210e-001 3.038220e+000 64 61 53
-1.170306e-001 2.491379e-001 3.071051e+000 104 101 90
4.779068e-001 -1.950864e-001 2.958910e+000 96 87 72
4.779068e-001 -1.950864e-001 2.958910e+000 96 87 72
1.403440e-001 -5.751879e-002 2.891083e+000 44 43 38
3.301554e-001 -4.574541e-002 3.040064e+000 111 99 85
1.088704e-001 -3.940929e-002 2.897013e+000 65 57 42
1.088704e-001 -3.940929e-002 2.897013e+000 65 57 42
3.713125e-001 -3.282217e-002 3.087898e+000 104 94 81
3.700301e-001 -3.314695e-002 3.088556e+000 104 94 81
3.127514e-001 -1.641450e-002 3.061847e+000 102 90 74
3.523685e-001 -4.308208e-003 3.106792e+000 148 136 120
3.523685e-001 -4.308208e-003 3.106792e+000 148 136 120
7.256273e-002 3.952852e-003 2.910662e+000 41 39 36
-1.105960e-001 1.783335e-003 2.791195e+000 68 65 56
-1.722455e-001 1.396328e-002 2.781309e+000 3 2 0
-1.722455e-001 1.396328e-002 2.781309e+000 3 2 0
1.373471e-001 -1.222787e-001 2.822737e+000 47 46 40
9.559431e-002 -1.214872e-001 2.795703e+000 47 41 39
5.517452e-002 -6.027075e-002 2.832626e+000 46 47 42
-6.995203e-002 -6.674466e-002 2.752929e+000 131 115 97
2.613427e-002 -2.115829e-002 2.853970e+000 126 111 89
2.633777e-002 -2.064710e-002 2.853361e+000 126 111 89
2.506634e-002 1.509489e-002 2.893822e+000 53 46 40
-2.796102e-002 2.478486e-002 2.866486e+000 46 46 42
-4.982013e-002 6.514104e-002 2.895127e+000 41 40 35
-6.568484e-002 1.289200e-001 2.959039e+000 132 115 95
-1.002646e-001 1.875129e-001 3.004240e+000 128 117 96
-6.793733e-002 3.603468e-001 3.262156e+000 133 115 92
-3.180794e-001 3.845973e-001 3.111141e+000 126 114 92
-3.926618e-001 4.873087e-001 3.202923e+000 129 114 91
4.349182e-001 -2.317022e-001 2.911224e+000 55 50 42
4.349182e-001 -2.317022e-001 2.911224e+000 55 50 42
3.271905e-002 -2.441121e-001 2.647000e+000 52 47 38
1.037359e-001 -2.263163e-001 2.703029e+000 127 113 96
1.037359e-001 -2.263163e-001 2.703029e+000 127 113 96
4.738726e-001 -2.227430e-001 2.974288e+000 133 118 96
4.222406e-001 -2.173719e-001 2.924347e+000 133 121 99
1.441398e-001 -2.006843e-001 2.748492e+000 44 43 37
8.110094e-002 -1.795295e-001 2.734140e+000 128 114 95
1.463798e-001 -1.402995e-001 2.809349e+000 49 45 40
7.458215e-002 -1.271974e-001 2.778923e+000 44 41 38
3.743478e-002 -5.869890e-002 2.813651e+000 48 47 42
3.923503e-002 -5.813229e-002 2.811222e+000 48 47 42
5.522046e-002 -3.042125e-002 2.864306e+000 50 44 37
5.700804e-002 2.566354e-002 2.926278e+000 48 43 37
-2.518372e-003 5.592611e-002 2.917645e+000 126 114 89
-2.956267e-002 5.462619e-002 2.899061e+000 130 118 95
-5.201113e-002 1.155760e-001 2.952677e+000 44 41 34
-5.876216e-002 1.497149e-001 2.985557e+000 127 111 92
-5.876216e-002 1.497149e-001 2.985557e+000 127 111 92
-1.294972e-001 2.294129e-001 3.037296e+000 50 48 41
-6.199579e-002 4.847494e-001 3.456667e+000 130 116 96
1.262131e-001 -2.427469e-001 2.696567e+000 51 46 33
1.262131e-001 -2.427469e-001 2.696567e+000 51 46 33
-1.877129e-004 -2.504373e-001 2.630178e+000 52 46 35
-1.419338e-002 -2.571816e-001 2.636529e+000 52 46 35
9.371290e-003 -2.377247e-001 2.633297e+000 127 115 101
6.836883e-003 -2.381574e-001 2.636243e+000 127 115 101
7.594064e-003 -2.229429e-001 2.652362e+000 49 45 34
4.588360e-003 -2.120937e-001 2.659946e+000 129 116 96
9.195325e-002 -1.718677e-001 2.753975e+000 124 115 100
8.161544e-002 -1.659900e-001 2.743732e+000 47 44 35
1.240574e-001 -1.626102e-001 2.770945e+000 49 43 37
4.044115e-002 -1.303636e-001 2.754843e+000 48 44 33
4.529799e-002 -8.619132e-002 2.793589e+000 49 46 44
-4.821931e-002 -8.516790e-002 2.744869e+000 129 113 92
-8.040357e-002 -6.166289e-002 2.746172e+000 124 111 94
5.770154e-002 -4.849793e-002 2.844442e+000 129 116 97
5.770154e-002 -4.849793e-002 2.844442e+000 129 116 97
-6.754322e-002 -5.239958e-002 2.766792e+000 49 44 40
-7.858644e-002 -4.975349e-002 2.753867e+000 50 44 36
5.032185e-002 -3.760409e-002 2.853733e+000 126 114 98
5.032185e-002 -3.760409e-002 2.853733e+000 126 114 98
-1.244158e-002 -1.248228e-002 2.836996e+000 49 43 31
2.180425e-002 -8.665899e-003 2.864098e+000 44 40 31
2.947785e-001 -3.667833e-003 3.083852e+000 133 118 97
2.706276e-001 -1.219339e-002 3.117125e+000 133 118 97
-2.379411e-002 3.246156e-003 2.851217e+000 44 40 36
3.868795e-003 1.418578e-002 2.878568e+000 126 115 99
-4.031405e-002 2.333833e-002 2.859559e+000 49 43 38
3.144624e-001 4.648927e-002 3.150632e+000 135 120 100
3.166924e-001 4.566056e-002 3.149888e+000 135 120 100
-7.474647e-002 1.141202e-001 2.936733e+000 51 45 35
8.511844e-002 1.242587e-001 3.059838e+000 118 105 87
8.511844e-002 1.242587e-001 3.059838e+000 118 105 87
6.849789e-002 1.323601e-001 3.057759e+000 134 119 98
6.849789e-002 1.323601e-001 3.057759e+000 134 119 98
-8.155490e-002 1.320822e-001 2.948941e+000 50 42 30
-1.156332e-001 1.585020e-001 2.959838e+000 46 39 29
-1.156332e-001 1.585020e-001 2.959838e+000 46 39 29
-1.179401e-001 1.841505e-001 2.987515e+000 47 42 34
-1.179401e-001 1.841505e-001 2.987515e+000 47 42 34
-7.829318e-002 1.871503e-001 3.017729e+000 51 47 38
-1.167260e-001 1.943463e-001 3.000003e+000 124 106 86
-1.169160e-001 1.933136e-001 2.999732e+000 124 106 86
-1.393955e-001 2.042422e-001 2.994522e+000 48 42 34
-1.394354e-001 2.028545e-001 2.995396e+000 48 42 34
-7.867191e-002 2.060475e-001 3.040534e+000 49 43 31
-7.867191e-002 2.060475e-001 3.040534e+000 49 43 31
-1.158967e-001 2.291379e-001 3.044871e+000 113 108 96
-1.100697e-001 2.544532e-001 3.080409e+000 54 47 34
-1.100697e-001 2.544532e-001 3.080409e+000 54 47 34
-6.565352e-002 3.440937e-001 3.239086e+000 47 44 34
-4.224101e-002 3.480197e-001 3.262175e+000 55 45 35
-4.140063e-001 4.904724e-001 3.225615e+000 50 41 29
-1.866544e-001 5.197245e-001 3.405228e+000 55 45 32
-4.820328e-002 -2.960117e-001 2.725420e+000 123 110 95
2.655436e-002 -2.188708e-001 2.660485e+000 46 40 30
1.597871e-002 -2.058561e-001 2.674918e+000 48 42 29
4.821358e-003 -2.001678e-001 2.680399e+000 131 113 96
8.245424e-002 -1.393761e-001 2.770062e+000 53 43 35
6.973745e-002 -1.388090e-001 2.768434e+000 120 113 97
6.973745e-002 -1.388090e-001 2.768434e+000 120 113 97
-3.746545e-002 -1.297914e-001 2.703564e+000 45 38 32
3.475574e-002 -1.149372e-001 2.763767e+000 56 49 39
-6.046165e-002 -1.145662e-001 2.712646e+000 53 44 33
8.765367e-003 -6.094457e-002 2.792956e+000 52 43 43
2.158830e-002 -5.079643e-002 2.817587e+000 120 108 89
4.486671e-002 -4.617673e-002 2.840391e+000 47 44 39
4.162499e-002 -2.704662e-002 2.862301e+000 50 44 37
8.936195e-003 -1.638111e-002 2.847294e+000 52 46 37
2.345020e-002 -2.414986e-004 2.873275e+000 120 110 98
2.331609e-002 9.555133e-005 2.873163e+000 120 110 98
-1.354145e-002 6.605320e-003 2.857887e+000 130 119 99
-8.360202e-003 6.765087e-002 2.927857e+000 44 36 28
-3.646398e-002 6.556299e-002 2.906003e+000 52 47 38
-4.261989e-002 7.413219e-002 2.912291e+000 127 114 98
-4.261989e-002 7.413219e-002 2.912291e+000 127 114 98
-1.816890e-002 8.470990e-002 2.938003e+000 47 43 36
-4.288544e-002 8.418951e-002 2.919998e+000 45 42 34
-3.743026e-002 9.434476e-002 2.933638e+000 45 38 28
-3.743026e-002 9.434476e-002 2.933638e+000 45 38 28
-5.453832e-002 9.984080e-002 2.931833e+000 52 48 37
-5.453832e-002 9.984080e-002 2.931833e+000 52 48 37
-3.254578e-002 1.091972e-001 2.957594e+000 131 119 105
-3.134956e-002 1.106885e-001 2.956893e+000 131 119 105
-7.721990e-002 1.684670e-001 2.998168e+000 134 118 99
-7.717010e-002 1.685041e-001 2.998065e+000 134 118 99
-1.462882e-001 2.115284e-001 3.001684e+000 46 37 28
-8.437972e-002 3.582193e-001 3.245631e+000 52 39 30
-2.362255e-001 3.572119e-001 3.125904e+000 51 40 33
6.389398e-003 3.852862e-001 3.358569e+000 55 47 35
-1.207986e-002 3.859083e-001 3.344404e+000 52 44 33
-9.501076e-002 4.954379e-001 3.445673e+000 54 45 33
-8.454709e-002 4.952860e-001 3.461770e+000 52 45 35
-7.840841e-002 4.958367e-001 3.462075e+000 52 45 35
-8.506422e-003 -2.435326e-001 2.637058e+000 46 34 21
4.444905e-002 -1.196459e-001 2.764019e+000 129 120 110
7.587762e-002 -1.163302e-001 2.789456e+000 112 109 93
7.590416e-002 -1.165282e-001 2.789573e+000 112 109 93
8.891222e-002 -1.086953e-001 2.804242e+000 121 115 101
-5.224692e-002 -6.129489e-002 2.763824e+000 131 115 99
-5.224692e-002 -6.129489e-002 2.763824e+000 131 115 99
2.623887e-001 3.115145e-003 3.115671e+000 135 119 103
-1.737936e-002 1.565729e-002 2.876622e+000 116 109 90
2.954770e-001 2.473822e-002 3.090622e+000 137 124 105
2.934811e-001 2.312711e-002 3.093771e+000 137 124 105
-6.333075e-002 1.076356e-001 2.935852e+000 127 118 104
-6.333075e-002 1.076356e-001 2.935852e+000 127 118 104
-1.276087e-001 1.949203e-001 2.991455e+000 131 122 102
-1.103462e-001 1.989802e-001 3.009816e+000 46 38 27
-1.102562e-001 2.003395e-001 3.008677e+000 46 38 27
-8.560246e-002 2.143365e-001 3.047031e+000 45 41 33
-8.730326e-002 2.251219e-001 3.055300e+000 58 48 32
-1.488347e-001 2.588598e-001 3.058666e+000 52 40 29
-4.831705e-002 3.754289e-001 3.296561e+000 127 118 103
-4.867677e-002 3.755050e-001 3.296621e+000 127 118 103
-6.857831e-002 3.817599e-001 3.287547e+000 54 47 31
4.699125e-004 3.811806e-001 3.348728e+000 127 119 105
-7.253365e-002 4.756022e-001 3.507177e+000 49 41 31
-3.629129e-001 5.125341e-001 3.282214e+000 125 118 97
1.064680e-001 -2.173709e-001 2.712045e+000 76 74 67
1.064680e-001 -2.173709e-001 2.712045e+000 76 74 67
-6.649824e-002 2.285835e-001 3.083741e+000 143 130 113
-1.049206e-001 1.287612e-001 2.935232e+000 142 129 112
6.242861e-002 4.013202e-001 3.416274e+000 145 132 117
1.577839e-002 5.024833e-001 3.490294e+000 145 132 115
5.199224e-002 1.765363e-004 2.894660e+000 142 129 112
1.195968e-001 -1.213962e-001 2.809372e+000 138 122 106
2.012399e-001 -2.323655e-001 2.747659e+000 54 54 49
1.132235e-001 -2.121126e-001 2.715117e+000 58 57 52
7.852192e-002 5.386464e-002 2.973958e+000 54 54 52
-2.335273e-002 6.243825e-002 2.914997e+000 55 56 51
-1.281024e-001 2.540776e-001 3.067297e+000 52 52 52
1.037425e-001 -1.755549e-001 2.752012e+000 139 125 109
-3.123105e-003 5.498993e-002 2.918437e+000 137 126 102
9.340635e-002 -1.349863e-001 2.780522e+000 143 131 109
2.339135e-001 -2.484158e-001 2.748260e+000 142 131 113
-4.052127e-001 4.821503e-001 3.206513e+000 132 118 99
-7.502936e-002 -3.747294e-002 2.788841e+000 58 53 45
-3.559552e-001 5.184910e-001 3.273120e+000 60 53 44
-3.535424e-001 5.174190e-001 3.268596e+000 60 53 44
-1.521707e-001 2.183429e-001 3.010121e+000 56 52 45
7.297602e-002 -1.853828e-001 2.722138e+000 60 55 51
1.007518e-001 -2.365687e-001 2.685098e+000 60 56 48
-9.529660e-002 1.334546e-001 2.965741e+000 54 55 50
-3.649923e-002 1.053742e-001 2.958088e+000 136 129 111
-1.782949e-001 5.349666e-001 3.398394e+000 66 59 51
1.227283e-002 -2.471923e-001 2.635299e+000 62 55 47
-8.494825e-002 1.002778e-001 2.927737e+000 136 126 114
-8.494825e-002 1.002778e-001 2.927737e+000 136 126 114
-2.985622e-002 1.564005e-002 2.855340e+000 130 124 109
-6.543314e-002 1.146451e-001 2.945773e+000 53 50 46
-6.297864e-002 1.015977e-001 2.942735e+000 130 123 109
-6.297864e-002 1.015977e-001 2.942735e+000 130 123 109
-1.016346e-001 1.716476e-001 3.001061e+000 137 131 114
-1.016346e-001 1.716476e-001 3.001061e+000 137 131 114
1.180644e-001 -1.772763e-001 2.755960e+000 58 51 47
3.166592e-002 2.104637e-004 2.882482e+000 58 52 42
1.547860e-002 3.924091e-001 3.354786e+000 65 62 55
1.558975e-002 -2.081946e-001 2.655253e+000 142 132 116
-4.566727e-002 5.053593e-002 2.894977e+000 63 55 47
-2.189636e-002 1.246252e-002 2.864895e+000 57 50 45
-1.310388e-002 1.396130e-002 2.871907e+000 133 131 110
-1.136719e-001 2.348283e-001 3.078307e+000 56 54 41
-4.869083e-002 3.606162e-001 3.251327e+000 66 58 47
-1.567765e-001 5.424944e-001 3.401043e+000 136 128 117
-1.567765e-001 5.424944e-001 3.401043e+000 136 128 117
-6.497774e-002 3.864756e-001 3.285200e+000 64 57 46
-5.570086e-002 5.326965e-001 3.470541e+000 140 132 114
-5.570086e-002 5.326965e-001 3.470541e+000 140 132 114
4.946366e-001 -3.096967e-001 2.909654e+000 120 109 93
-4.066172e-001 5.080921e-001 3.220890e+000 50 43 32
-3.240965e-001 4.285498e-001 3.137683e+000 64 50 40
-3.240965e-001 4.285498e-001 3.137683e+000 64 50 40
-9.766882e-002 1.985472e-001 3.019288e+000 51 44 35
2.061999e-001 -2.473813e-001 2.731138e+000 142 130 113
-8.399879e-002 3.645224e-001 3.253887e+000 66 56 45
-8.399879e-002 3.645224e-001 3.253887e+000 66 56 45
-3.783568e-002 3.435423e-001 3.249852e+000 61 52 43
-6.046444e-002 3.784385e-001 3.281192e+000 135 126 116
-5.261107e-002 3.843898e-001 3.297854e+000 63 54 39
-5.261107e-002 3.843898e-001 3.297854e+000 63 54 39
-3.183549e-002 3.780056e-001 3.314928e+000 56 48 35
6.203900e-002 3.894598e-001 3.372653e+000 67 61 49
4.089733e-001 -1.991082e-001 2.936161e+000 136 127 111
2.270626e-001 -2.303424e-001 2.769748e+000 43 48 41
2.283714e-001 -2.294432e-001 2.769402e+000 43 48 41
-2.233010e-002 -2.399302e-001 2.624060e+000 136 121 98
1.491420e-001 -1.579330e-001 2.773126e+000 134 118 101
