ply
format ascii 1.0
element face 0
property list uchar int vertex_indices
element vertex 896
property float x
property float y
property float z
property uchar diffuse_red
property uchar diffuse_green
property uchar diffuse_blue
end_header
1.666134e-001 -2.359071e-001 2.727977e+000 162 178 191
9.418859e-002 -2.284409e-001 2.762980e+000 166 182 192
9.353225e-001 1.801268e-001 2.694992e+000 84 94 106
-1.668953e-001 6.033876e-001 2.183860e+000 114 110 99
-1.668953e-001 6.033876e-001 2.183860e+000 114 110 99
-1.728012e-001 6.215056e-001 2.197393e+000 38 28 16
-1.991247e-001 6.257246e-001 2.209967e+000 129 121 110
1.955751e-001 7.492553e-001 2.153159e+000 137 124 107
-5.920433e-001 1.047320e+000 3.801520e+000 127 138 144
7.293713e-001 -3.620686e-001 2.434817e+000 77 100 114
7.299824e-001 -3.622681e-001 2.434847e+000 77 100 114
7.358965e-001 -3.264556e-001 2.454453e+000 191 210 225
6.058189e-001 -3.304877e-001 2.509037e+000 177 198 215
6.143630e-001 -3.283673e-001 2.510670e+000 79 105 120
1.581357e-001 -2.630853e-001 2.719299e+000 169 187 202
5.110093e-003 -2.731042e-001 2.771327e+000 162 180 194
9.304422e-001 -8.084185e-002 2.537646e+000 168 185 195
8.677302e-001 8.303275e-002 2.679066e+000 166 176 188
8.998697e-001 1.085978e-001 2.679381e+000 189 202 213
9.263594e-001 1.732044e-001 2.693450e+000 176 189 198
-2.145969e-001 5.614268e-001 2.171735e+000 133 126 108
-3.690788e-001 5.365916e-001 2.197554e+000 44 43 33
-3.693817e-001 5.373065e-001 2.196903e+000 44 43 33
-1.918360e-001 5.162927e-001 2.131112e+000 35 34 29
-1.918360e-001 5.162927e-001 2.131112e+000 35 34 29
2.905031e-001 2.011162e+000 2.876304e+000 121 118 97
2.905031e-001 2.011162e+000 2.876304e+000 121 118 97
4.066496e-001 1.858303e+000 2.920730e+000 132 115 95
3.681330e-001 1.708850e+000 2.785834e+000 136 121 98
-2.742485e-001 5.495716e-001 2.159360e+000 139 124 103
-1.767992e-001 5.180071e-001 2.117721e+000 48 48 44
-1.655994e-001 4.912900e-001 2.142208e+000 48 48 44
2.114366e-001 7.171099e-001 2.132353e+000 141 132 118
-5.965397e-001 4.920963e-001 2.270019e+000 136 121 100
-2.330915e-001 5.156647e-001 2.129128e+000 50 49 45
-1.487103e-001 7.749439e-001 2.278031e+000 43 45 39
2.394207e-001 9.909671e-001 2.317453e+000 51 42 26
2.408226e-001 9.832007e-001 2.318694e+000 51 42 26
2.818777e-001 5.914423e-001 2.000150e+000 133 124 109
-6.044060e-001 3.668710e-001 2.165020e+000 107 89 69
-3.309883e-001 1.160435e+000 2.656364e+000 133 118 97
-3.327976e-001 1.161338e+000 2.655069e+000 133 118 97
-3.596136e-001 5.453144e-001 2.194932e+000 55 54 49
-3.445220e-001 5.149085e-001 2.226575e+000 55 54 49
-3.307275e-001 7.988692e-001 2.377780e+000 57 53 50
-2.555304e-001 5.795194e-001 2.197399e+000 138 123 102
-2.159864e-001 7.015815e-001 2.257769e+000 48 47 43
-1.606235e-001 9.406078e-001 2.426124e+000 125 118 100
-1.615555e-001 9.444231e-001 2.422656e+000 125 118 100
-2.003122e-001 5.086679e-001 2.076807e+000 134 119 96
-3.715157e-001 1.639169e+000 3.037572e+000 127 112 91
-3.141839e-001 1.360061e+000 2.797540e+000 45 46 37
-3.814511e-001 5.235136e-001 2.192411e+000 134 119 96
-2.856595e-001 1.088733e+000 2.563847e+000 41 40 36
-2.628439e-001 1.001852e+000 2.504279e+000 127 113 93
-2.357278e-001 1.057422e+000 2.533802e+000 48 47 42
-2.298404e-001 1.114346e+000 2.571250e+000 48 45 40
-2.052588e-001 1.376526e+000 2.751189e+000 48 48 40
-2.197799e-001 1.397362e+000 2.663275e+000 129 114 95
-2.202338e-001 6.686283e-001 2.238792e+000 54 50 47
-2.022172e-001 8.324989e-001 2.352631e+000 52 49 44
1.886042e-001 5.331549e-001 1.996160e+000 55 54 52
2.746465e-001 5.475147e-001 1.960875e+000 60 55 49
2.757847e-001 5.414195e-001 1.964720e+000 60 55 49
-3.730686e-001 1.779047e+000 3.162909e+000 124 108 85
-4.647325e-001 1.810398e+000 2.948986e+000 124 109 85
-4.647325e-001 1.810398e+000 2.948986e+000 124 109 85
-2.446756e-001 1.887938e+000 3.202853e+000 45 38 31
-3.466407e-001 1.032969e+000 2.564994e+000 126 111 91
-3.112848e-001 1.029839e+000 2.548548e+000 127 110 92
-3.045066e-001 1.063205e+000 2.566992e+000 122 106 88
-3.045066e-001 1.063205e+000 2.566992e+000 122 106 88
-2.994281e-001 1.092226e+000 2.587376e+000 126 113 95
-3.114063e-001 7.254303e-001 2.340636e+000 123 107 91
-2.647053e-001 1.127379e+000 2.600447e+000 127 112 91
-2.438183e-001 1.140360e+000 2.600424e+000 45 41 40
-2.066547e-001 1.308362e+000 2.711502e+000 43 42 33
-2.168408e-001 1.386995e+000 2.671812e+000 133 118 99
2.444297e-001 1.735059e+000 2.784469e+000 132 120 98
2.951687e-001 1.659544e+000 2.786423e+000 57 50 47
2.388089e-001 8.664277e-001 2.230095e+000 138 127 108
1.969822e-001 4.011425e-001 1.906417e+000 158 150 131
2.350428e-001 4.100593e-001 1.891347e+000 157 146 128
2.654773e-001 4.120419e-001 1.881562e+000 162 149 132
2.674094e-001 4.089163e-001 1.884671e+000 162 149 132
3.269131e-001 4.454553e-001 1.865573e+000 118 105 86
-5.596274e-001 7.723754e-001 2.431890e+000 136 124 106
-5.613152e-001 5.286103e-001 2.265892e+000 52 44 33
-5.486043e-001 5.104185e-001 2.266181e+000 120 108 88
-5.363860e-001 5.983093e-001 2.314998e+000 43 42 37
-5.382724e-001 6.000566e-001 2.313090e+000 43 42 37
-5.129810e-001 7.615896e-001 2.428422e+000 54 50 45
-5.130725e-001 7.611490e-001 2.425739e+000 54 50 45
-4.703169e-001 1.986186e+000 3.017548e+000 120 106 80
-4.711280e-001 9.271025e-001 2.529174e+000 55 46 37
-2.452150e-001 1.894235e+000 3.217427e+000 127 114 91
-3.232972e-001 1.348186e+000 2.782441e+000 43 40 35
-3.709028e-001 7.454432e-001 2.357803e+000 47 47 40
-3.097010e-001 1.348453e+000 2.777632e+000 113 102 84
-3.088782e-001 1.349524e+000 2.777884e+000 113 102 84
-3.337372e-001 9.975522e-001 2.532120e+000 50 46 42
-3.337372e-001 9.975522e-001 2.532120e+000 50 46 42
-2.670066e-001 1.591085e+000 2.954919e+000 42 33 25
-2.676411e-001 1.593810e+000 2.952148e+000 42 33 25
-3.458382e-001 7.726911e-001 2.378198e+000 131 119 102
-3.454223e-001 8.101756e-001 2.394942e+000 120 110 92
-3.462876e-001 8.131752e-001 2.394595e+000 120 110 92
-3.504536e-001 7.011051e-001 2.311999e+000 125 114 96
-3.223923e-001 1.083191e+000 2.552413e+000 119 103 86
-3.270255e-001 1.130879e+000 2.558707e+000 129 117 98
-3.427445e-001 6.711160e-001 2.315497e+000 41 41 39
-3.324336e-001 7.723091e-001 2.362532e+000 56 53 48
-3.158197e-001 1.094101e+000 2.540446e+000 119 105 88
-3.158197e-001 1.094101e+000 2.540446e+000 119 105 88
-2.774422e-001 1.258428e+000 2.705639e+000 49 42 37
-3.187946e-001 7.716170e-001 2.351789e+000 127 111 96
-3.187946e-001 7.716170e-001 2.351789e+000 127 111 96
-3.139055e-001 8.151007e-001 2.382581e+000 119 110 93
-3.182736e-001 6.518401e-001 2.262500e+000 56 51 45
-2.993393e-001 5.222274e-001 2.209175e+000 127 116 95
-2.993393e-001 5.222274e-001 2.209175e+000 127 116 95
-2.691569e-001 1.386899e+000 2.627292e+000 115 108 89
-2.256440e-001 1.289702e+000 2.705031e+000 115 108 89
-2.082866e-001 1.359817e+000 2.739468e+000 50 45 41
-1.875381e-002 1.121690e+000 2.488071e+000 49 46 37
-1.673546e-002 1.122710e+000 2.493899e+000 49 46 37
1.318932e-002 1.143659e+000 2.507737e+000 54 47 39
8.242282e-002 1.650414e+000 2.855120e+000 50 41 34
2.616847e-001 4.299264e-001 1.892187e+000 107 92 73
2.852400e-001 4.340417e-001 1.885397e+000 114 98 82
3.510917e-001 4.414198e-001 1.861346e+000 116 103 84
3.510917e-001 4.414198e-001 1.861346e+000 116 103 84
3.657574e-001 4.287004e-001 1.845479e+000 161 152 133
-5.236475e-001 8.615989e-001 2.496205e+000 124 116 96
-4.671687e-001 1.809004e+000 2.943851e+000 130 114 92
-3.722488e-001 6.544772e-001 2.314268e+000 125 115 100
-3.799856e-001 6.672565e-001 2.301614e+000 125 115 100
-3.541650e-001 1.450823e+000 2.703636e+000 110 100 82
-3.007321e-001 1.291715e+000 2.733962e+000 43 39 35
-2.744840e-001 1.289893e+000 2.731337e+000 47 44 35
-2.698011e-001 1.332339e+000 2.759919e+000 49 45 37
-2.778480e-001 1.224098e+000 2.680177e+000 126 111 95
-2.795321e-001 1.168182e+000 2.645531e+000 127 116 96
-2.819042e-001 1.173355e+000 2.642753e+000 127 116 96
-3.061860e-001 1.489256e+000 2.689253e+000 129 116 99
-3.061860e-001 1.489256e+000 2.689253e+000 129 116 99
-2.512351e-001 1.258539e+000 2.696805e+000 42 38 29
-2.519804e-001 1.256237e+000 2.699541e+000 42 38 29
-2.325674e-001 1.288152e+000 2.714928e+000 45 42 33
-2.630517e-001 8.734633e-001 2.404866e+000 125 113 99
-2.639084e-001 8.763421e-001 2.403067e+000 125 113 99
-1.954729e-001 7.017675e-001 2.251838e+000 51 48 42
-1.952830e-001 7.022569e-001 2.251518e+000 51 48 42
-1.777269e-001 7.065720e-001 2.241880e+000 48 43 37
-1.728285e-001 6.994501e-001 2.247441e+000 48 43 37
1.113042e-001 1.925400e+000 3.066649e+000 125 110 90
1.976333e-001 6.134176e-001 2.037903e+000 137 126 106
1.976333e-001 6.134176e-001 2.037903e+000 137 126 106
2.901203e-001 7.121394e-001 2.094283e+000 141 128 111
2.901203e-001 7.121394e-001 2.094283e+000 141 128 111
3.438016e-001 9.113534e-001 2.226670e+000 141 132 113
3.438016e-001 9.113534e-001 2.226670e+000 141 132 113
3.644347e-001 4.223916e-001 1.829654e+000 98 86 70
-5.392302e-001 5.014636e-001 2.236368e+000 52 43 34
-5.087206e-001 7.968982e-001 2.455540e+000 117 108 93
-5.078406e-001 8.159547e-001 2.468512e+000 125 118 100
-4.969032e-001 5.247660e-001 2.282274e+000 142 130 118
-3.259827e-001 1.302312e+000 2.762744e+000 48 43 31
-3.645734e-001 8.437760e-001 2.423456e+000 44 42 33
-3.448446e-001 1.144595e+000 2.582868e+000 55 47 38
-3.319122e-001 5.310843e-001 2.224982e+000 134 128 113
-2.929947e-001 1.019033e+000 2.496869e+000 42 34 24
-2.929947e-001 1.019033e+000 2.496869e+000 42 34 24
-2.511260e-001 1.124224e+000 2.593772e+000 126 116 99
-2.249899e-001 1.245353e+000 2.672704e+000 42 34 25
-2.234038e-001 1.245381e+000 2.673678e+000 42 34 25
-1.984272e-001 5.950069e-001 2.183332e+000 56 49 41
-1.725262e-001 7.216804e-001 2.267678e+000 128 121 105
1.472098e-002 1.598450e+000 2.857049e+000 129 117 99
1.961639e-001 1.705577e+000 2.773722e+000 55 49 37
2.998472e-001 1.902238e+000 2.971243e+000 49 43 35
1.988194e-001 7.324784e-001 2.149701e+000 131 123 102
2.183450e-001 9.380414e-001 2.279831e+000 63 51 37
1.838479e-001 5.910892e-001 2.020858e+000 134 122 107
1.838479e-001 5.910892e-001 2.020858e+000 134 122 107
2.213511e-001 8.947420e-001 2.251230e+000 131 122 104
1.991490e-001 7.258123e-001 2.133028e+000 53 43 36
2.987080e-001 1.822657e+000 2.765421e+000 131 124 106
2.987080e-001 1.822657e+000 2.765421e+000 131 124 106
2.404592e-001 9.985089e-001 2.320450e+000 133 122 104
1.985974e-001 5.872474e-001 2.017181e+000 127 115 99
2.018223e-001 5.979321e-001 2.025861e+000 145 134 115
2.183075e-001 7.153113e-001 2.114557e+000 143 131 115
2.181782e-001 7.151782e-001 2.113716e+000 143 131 115
2.515969e-001 9.371229e-001 2.283335e+000 131 118 102
2.505339e-001 9.464689e-001 2.278039e+000 131 118 102
2.540215e-001 9.549779e-001 2.286379e+000 130 117 101
2.540215e-001 9.549779e-001 2.286379e+000 130 117 101
2.554189e-001 9.856941e-001 2.305681e+000 133 121 105
2.520334e-001 9.983354e-001 2.312101e+000 147 135 121
2.678019e-001 5.878211e-001 1.998434e+000 140 130 118
2.680086e-001 5.879039e-001 1.999031e+000 140 130 118
2.987128e-001 8.069664e-001 2.153628e+000 144 133 117
3.025384e-001 8.368291e-001 2.174048e+000 147 135 123
3.299701e-001 9.242673e-001 2.228937e+000 62 52 42
3.050952e-001 8.425901e-001 2.118058e+000 140 128 112
3.391292e-001 9.491122e-001 2.243894e+000 141 132 117
3.545759e-001 1.035169e+000 2.298750e+000 67 54 38
-6.297767e-001 1.911569e+000 2.999830e+000 98 92 86
-4.352292e-001 1.699328e+000 3.099940e+000 124 114 103
-5.194101e-001 7.955035e-001 2.451961e+000 47 37 26
-5.032686e-001 8.247919e-001 2.474380e+000 29 20 11
-4.968506e-001 8.152234e-001 2.466332e+000 44 35 27
-5.026725e-001 6.841864e-001 2.365739e+000 139 127 111
-3.336942e-001 1.028872e+000 2.509881e+000 125 114 103
-3.201667e-001 1.000408e+000 2.534028e+000 125 114 103
-3.231593e-001 7.724518e-001 2.372195e+000 52 46 37
-2.461426e-001 1.128107e+000 2.587005e+000 130 120 103
-2.444764e-001 9.467036e-001 2.438316e+000 44 32 20
-2.444764e-001 9.467036e-001 2.438316e+000 44 32 20
-1.890115e-001 8.483260e-001 2.360030e+000 119 112 102
-1.890115e-001 8.483260e-001 2.360030e+000 119 112 102
-2.001416e-001 5.739999e-001 2.197182e+000 58 52 42
-1.922333e-001 7.339391e-001 2.281088e+000 44 37 30
-1.811411e-001 7.324531e-001 2.288928e+000 131 125 113
-1.768254e-001 7.311755e-001 2.280328e+000 47 43 33
-1.696656e-001 6.972783e-001 2.264571e+000 130 124 110
-1.922678e-001 5.663729e-001 2.140074e+000 133 127 115
-1.714617e-001 6.650488e-001 2.224902e+000 139 133 121
-1.419981e-001 9.147213e-001 2.398697e+000 44 40 31
-1.419981e-001 9.147213e-001 2.398697e+000 44 40 31
-1.616147e-001 5.994885e-001 2.200660e+000 126 122 111
-1.616147e-001 5.994885e-001 2.200660e+000 126 122 111
1.048590e-001 1.668292e+000 2.873424e+000 132 120 103
2.945574e-001 1.918585e+000 2.983603e+000 51 45 35
2.611025e-001 1.677139e+000 2.808512e+000 48 43 31
3.066418e-001 1.912985e+000 2.975290e+000 49 40 33
2.694462e-001 2.033911e+000 2.877218e+000 45 39 30
2.206500e-001 9.575458e-001 2.293801e+000 67 55 41
2.137945e-001 8.654460e-001 2.232892e+000 66 54 39
2.192528e-001 8.729712e-001 2.231005e+000 143 131 115
2.192528e-001 8.729712e-001 2.231005e+000 143 131 115
2.045256e-001 8.823708e-001 2.189292e+000 146 135 117
2.197067e-001 9.245447e-001 2.211598e+000 147 133 120
2.096161e-001 7.707168e-001 2.126251e+000 61 51 39
2.284689e-001 8.774804e-001 2.182567e+000 52 44 30
2.330194e-001 9.229199e-001 2.209685e+000 141 131 114
2.460153e-001 8.913046e-001 2.237126e+000 141 131 114
2.314633e-001 9.403698e-001 2.212289e+000 140 128 112
2.256605e-001 7.060187e-001 2.107242e+000 58 46 30
2.650077e-001 9.945484e-001 2.311128e+000 54 41 25
3.049766e-001 9.229639e-001 2.235052e+000 66 54 39
2.936431e-001 8.302982e-001 2.171509e+000 50 38 23
3.202946e-001 1.031909e+000 2.309864e+000 62 49 33
3.068420e-001 8.594041e-001 2.204114e+000 145 135 119
3.168850e-001 9.235919e-001 2.235552e+000 57 47 37
3.168850e-001 9.235919e-001 2.235552e+000 57 47 37
3.194158e-001 9.386558e-001 2.246893e+000 59 47 35
2.845937e-001 6.172259e-001 2.016921e+000 133 124 109
3.242779e-001 9.167920e-001 2.228363e+000 144 137 120
3.242779e-001 9.167920e-001 2.228363e+000 144 137 120
3.163403e-001 1.017398e+000 2.221058e+000 144 134 122
3.169061e-001 9.802727e-001 2.203212e+000 63 53 40
3.063709e-001 8.421108e-001 2.120613e+000 139 127 112
3.320126e-001 8.751946e-001 2.192874e+000 134 125 110
2.999603e-001 7.093392e-001 2.042998e+000 50 41 26
2.970233e-001 6.116550e-001 1.998990e+000 150 139 123
3.276477e-001 8.323342e-001 2.162162e+000 54 42 29
3.462561e-001 9.841777e-001 2.269394e+000 147 137 122
3.462561e-001 9.841777e-001 2.269394e+000 147 137 122
3.570944e-001 1.000568e+000 2.288381e+000 54 42 26
3.529362e-001 9.905903e-001 2.266901e+000 53 41 27
-5.277561e-001 8.503576e-001 2.486004e+000 128 123 111
-5.078738e-001 8.478304e-001 2.489361e+000 132 127 113
-4.859644e-001 8.897994e-001 2.496521e+000 139 130 115
-4.859644e-001 8.897994e-001 2.496521e+000 139 130 115
-3.631796e-001 9.521803e-001 2.507371e+000 125 112 98
-3.538649e-001 7.400801e-001 2.367475e+000 121 121 110
-3.297522e-001 9.231690e-001 2.478302e+000 129 120 105
-3.427307e-001 7.297913e-001 2.352406e+000 131 120 99
-3.494124e-001 6.891033e-001 2.308067e+000 47 43 37
-3.254719e-001 7.256459e-001 2.337776e+000 47 40 30
-2.813115e-001 1.734011e+000 2.808587e+000 125 113 96
-2.989068e-001 5.719269e-001 2.203019e+000 116 108 94
-2.344475e-001 9.743227e-001 2.476732e+000 51 43 31
-1.896196e-001 8.407421e-001 2.345800e+000 125 121 112
-2.027079e-001 5.382748e-001 2.179012e+000 42 33 21
-2.027079e-001 5.382748e-001 2.179012e+000 42 33 21
-1.694546e-001 9.398587e-001 2.426940e+000 130 123 112
-1.803083e-001 8.168856e-001 2.335069e+000 110 105 93
-1.921054e-001 5.402013e-001 2.173713e+000 44 36 21
-1.739548e-001 5.720954e-001 2.181398e+000 141 137 127
-1.549295e-001 8.433967e-001 2.332774e+000 126 120 110
-1.477522e-001 8.524428e-001 2.354238e+000 36 29 19
-1.606189e-001 6.398324e-001 2.225647e+000 150 144 130
-1.606189e-001 6.398324e-001 2.225647e+000 150 144 130
1.193733e-001 1.649738e+000 2.840292e+000 130 121 105
1.973229e-001 9.258170e-001 2.225311e+000 44 34 21
1.771360e-001 6.116787e-001 2.052031e+000 55 43 29
1.854082e-001 7.050952e-001 2.103832e+000 147 138 121
1.895668e-001 7.658166e-001 2.133767e+000 47 38 21
1.802914e-001 6.077354e-001 2.047321e+000 143 134 117
2.321699e-001 1.008619e+000 2.326190e+000 57 44 30
2.320986e-001 1.006046e+000 2.329788e+000 57 44 30
1.918881e-001 7.148083e-001 2.104955e+000 141 131 119
1.903586e-001 7.059075e-001 2.109704e+000 141 131 119
2.094689e-001 7.998973e-001 2.145558e+000 145 133 119
2.213876e-001 7.658339e-001 2.170738e+000 145 133 119
2.023308e-001 6.880083e-001 2.080861e+000 139 130 113
2.361968e-001 9.025966e-001 2.258046e+000 135 123 107
2.024550e-001 6.270008e-001 2.054579e+000 47 35 19
2.345965e-001 9.019222e-001 2.250596e+000 128 116 103
2.345965e-001 9.019222e-001 2.250596e+000 128 116 103
2.185680e-001 8.729043e-001 2.181688e+000 144 135 118
2.669852e-001 6.318669e-001 2.032583e+000 63 52 36
2.726966e-001 6.520383e-001 2.027244e+000 150 141 124
2.726966e-001 6.520383e-001 2.027244e+000 150 141 124
2.688786e-001 6.247642e-001 1.995813e+000 135 126 113
3.330936e-001 9.964353e-001 2.299524e+000 62 50 34
2.866512e-001 7.890076e-001 2.099292e+000 60 47 31
2.866512e-001 7.890076e-001 2.099292e+000 60 47 31
3.169486e-001 1.001975e+000 2.217015e+000 145 137 124
3.382337e-001 9.674729e-001 2.254367e+000 56 46 34
3.278864e-001 1.097498e+000 2.256849e+000 125 112 95
-4.199076e-001 9.748266e-001 2.545401e+000 129 113 90
-4.231277e-001 7.387775e-001 2.375550e+000 130 114 91
3.186196e-001 8.754474e-001 2.197249e+000 76 67 53
1.968766e-001 5.801993e-001 2.039036e+000 120 107 90
-3.432913e-001 1.738544e+000 3.095477e+000 109 96 73
-5.834393e-001 5.438835e-001 2.297179e+000 126 111 92
-5.820053e-001 1.291502e+000 2.824033e+000 41 24 15
1.371457e-001 1.627626e+000 2.837484e+000 41 35 30
-3.251887e-001 6.019806e-001 2.242407e+000 130 114 88
-3.217985e-001 8.363409e-001 2.412376e+000 51 46 40
-3.468435e-001 1.321494e+000 2.763832e+000 120 104 80
-3.049849e-001 5.774794e-001 2.214309e+000 129 114 95
-3.936293e-001 1.594930e+000 3.029958e+000 113 98 76
6.745167e-002 1.638687e+000 2.856440e+000 49 40 31
-2.971051e-001 1.109014e+000 2.601251e+000 42 38 29
-3.101839e-001 1.206999e+000 2.679513e+000 114 99 76
-3.101839e-001 1.206999e+000 2.679513e+000 114 99 76
-3.823733e-001 6.493309e-001 2.285608e+000 126 114 91
-3.950092e-001 5.876935e-001 2.245857e+000 53 44 39
4.068426e-001 1.927520e+000 2.951893e+000 48 38 29
2.627130e-001 1.916745e+000 2.995919e+000 110 99 82
-2.385678e-001 4.885961e-001 2.114089e+000 143 130 112
-2.873423e-001 1.074520e+000 2.555698e+000 39 35 26
-3.811076e-001 7.781837e-001 2.382102e+000 120 107 84
-1.092420e-001 1.182187e+000 2.576868e+000 42 31 20
-1.092420e-001 1.182187e+000 2.576868e+000 42 31 20
3.453620e-001 3.973919e-001 1.856969e+000 80 67 50
3.478944e-001 1.005009e+000 2.277448e+000 36 23 7
3.454106e-001 9.969742e-001 2.273486e+000 129 116 100
3.454106e-001 9.969742e-001 2.273486e+000 129 116 100
3.199662e-001 8.241822e-001 2.156164e+000 128 116 100
2.901675e-001 7.557470e-001 2.125499e+000 128 115 98
3.098870e-001 9.309903e-001 2.239908e+000 129 117 100
-2.763047e-001 9.318356e-001 2.456916e+000 116 109 96
-2.763047e-001 9.318356e-001 2.456916e+000 116 109 96
-2.970692e-001 9.036184e-001 2.440258e+000 118 111 95
-2.927286e-001 8.992585e-001 2.443462e+000 118 111 95
-2.923903e-001 1.273136e+000 2.716194e+000 119 108 90
-4.830994e-001 8.753386e-001 2.497908e+000 34 26 10
3.105607e-001 8.025195e-001 2.151689e+000 56 44 29
3.105607e-001 8.025195e-001 2.151689e+000 56 44 29
3.121909e-001 8.577570e-001 2.192775e+000 128 116 102
8.817130e-002 1.670635e+000 2.885589e+000 125 111 93
-1.541188e-001 9.386226e-001 2.412686e+000 41 33 22
-1.541188e-001 9.386226e-001 2.412686e+000 41 33 22
-2.902066e-001 6.172351e-001 2.222931e+000 121 110 100
-4.873353e-001 7.938288e-001 2.456410e+000 125 116 107
-5.187432e-001 8.184563e-001 2.467577e+000 36 30 18
-5.185189e-001 8.182071e-001 2.467855e+000 36 30 18
2.348214e-001 2.619310e+000 2.890955e+000 161 175 188
-3.447228e-001 1.694119e+000 3.079203e+000 119 108 87
-6.008229e-001 9.139928e-001 2.581434e+000 27 14 9
-8.956252e-001 7.646923e-001 2.109447e+000 121 114 96
1.787276e-002 2.609645e+000 2.950473e+000 150 162 176
7.525027e-002 2.614876e+000 2.932465e+000 148 163 174
-5.991667e-001 4.972135e-001 2.270218e+000 138 127 109
-8.888781e-001 6.559133e-001 2.039715e+000 137 131 118
-8.223386e-001 2.346268e+000 3.095105e+000 109 102 85
-4.177548e-001 1.596318e+000 3.015949e+000 47 41 38
-1.132886e-001 1.003470e+000 2.453392e+000 53 52 49
-1.132886e-001 1.003470e+000 2.453392e+000 53 52 49
-5.900064e-001 7.877212e-001 2.473983e+000 136 125 106
-5.285299e-001 6.751181e-001 2.367635e+000 55 52 45
-5.668122e-001 4.915568e-001 2.243137e+000 65 61 55
-7.773632e-001 1.957961e+000 2.840466e+000 142 156 167
-2.126107e-001 1.294675e+000 2.702311e+000 45 42 37
-8.640609e-001 1.068406e+000 2.295283e+000 121 118 103
-2.981111e-001 7.786342e-001 2.353020e+000 56 57 51
5.594754e-001 2.619416e+000 2.766901e+000 181 197 212
5.594754e-001 2.619416e+000 2.766901e+000 181 197 212
-3.479441e-001 1.723131e+000 3.088806e+000 128 115 94
-3.918684e-001 1.591951e+000 3.005837e+000 50 41 38
-2.593885e-002 1.364896e+000 2.682050e+000 54 45 36
-8.603647e-001 1.125176e+000 2.330324e+000 123 118 103
1.598867e+000 2.730659e+000 2.446454e+000 147 141 129
3.202621e-001 1.864342e+000 2.936941e+000 47 38 29
-3.572961e-001 1.764852e+000 3.130051e+000 31 21 11
-3.572961e-001 1.764852e+000 3.130051e+000 31 21 11
3.331070e-001 1.752354e+000 2.837771e+000 128 116 103
3.331070e-001 1.752354e+000 2.837771e+000 128 116 103
-5.598022e-001 1.581867e+000 3.051716e+000 146 136 122
-3.240323e-001 1.315657e+000 2.761384e+000 125 119 101
-3.240323e-001 1.315657e+000 2.761384e+000 125 119 101
-1.415920e-001 9.326558e-001 2.411447e+000 54 46 43
3.384594e-001 1.769982e+000 2.851262e+000 131 119 103
-7.796851e-001 1.997704e+000 2.868163e+000 151 165 176
2.515727e-001 1.664189e+000 2.800913e+000 36 29 21
3.519828e-001 9.901743e-001 2.263449e+000 71 58 42
2.381890e-001 8.505786e-001 2.203876e+000 55 43 29
2.148092e-001 8.372752e-001 2.205487e+000 151 139 124
2.088383e-001 8.301360e-001 2.201908e+000 60 48 31
2.023744e-001 7.721667e-001 2.162099e+000 141 129 115
-1.931599e-001 7.150201e-001 2.271656e+000 46 39 29
3.130904e-001 7.377784e-001 2.092248e+000 71 62 47
-1.939077e-001 6.641624e-001 2.235007e+000 123 117 103
-3.399057e-001 6.516442e-001 2.279354e+000 138 130 116
3.707959e-001 1.849270e+000 2.907709e+000 125 113 99
-1.696508e-001 9.397705e-001 2.425997e+000 137 131 119
3.254129e-001 9.459368e-001 2.239927e+000 145 133 119
-1.742396e-001 8.575197e-001 2.363636e+000 131 122 112
2.136314e-001 8.656180e-001 2.227266e+000 55 43 28
2.943315e-001 6.990299e-001 2.071950e+000 59 47 35
-1.835028e-001 6.526301e-001 2.220561e+000 134 131 116
2.787830e-001 6.361369e-001 2.030618e+000 72 62 51
-2.871996e-001 1.074366e+000 2.566219e+000 45 42 35
-1.590256e-001 9.466599e-001 2.420997e+000 125 118 100
-3.160914e-001 5.633620e-001 2.161822e+000 128 116 93
-3.160914e-001 5.633620e-001 2.161822e+000 128 116 93
-2.417362e-001 5.905361e-001 2.155424e+000 50 49 44
-1.294034e-001 7.493929e-001 2.234634e+000 138 123 103
-3.822308e-001 1.577564e+000 3.000161e+000 121 104 84
-3.893150e-001 1.591810e+000 2.988954e+000 121 104 84
-3.829156e-001 7.945812e-001 2.394555e+000 49 48 43
-3.670193e-001 7.730396e-001 2.369819e+000 45 45 41
-2.911270e-001 1.359833e+000 2.792402e+000 48 48 43
-3.599867e-001 5.738170e-001 2.213113e+000 49 48 43
-3.599867e-001 5.738170e-001 2.213113e+000 49 48 43
-2.934647e-001 1.147229e+000 2.624481e+000 127 111 90
-2.934647e-001 1.147229e+000 2.624481e+000 127 111 90
-2.328530e-001 1.163206e+000 2.594705e+000 127 112 93
-5.464278e-001 6.555772e-001 2.366008e+000 137 124 100
-5.236033e-001 7.353971e-001 2.431800e+000 128 117 98
-3.841699e-001 1.796811e+000 3.144545e+000 120 106 80
-2.972743e-001 1.576898e+000 2.949739e+000 129 115 95
3.183424e-001 7.718092e-001 2.161653e+000 137 125 109
6.969149e-001 -2.140553e-002 2.309059e+000 203 219 233
-5.655401e-001 4.702061e-001 2.222316e+000 131 116 95
-3.747061e-001 1.881390e+000 3.202890e+000 42 32 26
-3.522145e-001 8.560078e-001 2.425494e+000 134 119 99
-3.191315e-001 1.174477e+000 2.643293e+000 52 45 37
8.891833e-001 1.635968e-001 2.700003e+000 191 204 214
3.099971e-001 8.293790e-001 2.207458e+000 135 126 109
8.107806e-001 1.102130e-001 2.443006e+000 194 210 223
9.078449e-001 2.547887e-001 2.619668e+000 138 155 165
-5.212022e-001 8.062525e-001 2.481265e+000 124 116 103
-3.424375e-001 9.982248e-001 2.519851e+000 135 129 110
-2.158399e-001 5.858303e-001 2.139294e+000 129 122 106
-1.852010e-001 6.418755e-001 2.194835e+000 127 121 107
2.261352e-001 9.901950e-001 2.317268e+000 151 139 125
2.160481e-001 8.603953e-001 2.235454e+000 66 54 39
9.603356e-001 1.853401e-001 2.710138e+000 44 58 70
-5.411571e-001 8.938069e-001 2.530277e+000 39 26 13
-2.785876e-001 1.211324e+000 2.650979e+000 119 109 99
-2.796236e-001 1.038565e+000 2.540914e+000 137 126 113
-1.869444e-001 8.613914e-001 2.360202e+000 123 117 105
-1.545655e-001 9.056867e-001 2.365079e+000 126 121 109
3.266845e-001 8.248442e-001 2.197166e+000 60 50 38
3.571864e-001 9.181706e-001 2.252139e+000 68 56 40
3.571864e-001 9.181706e-001 2.252139e+000 68 56 40
7.079269e-001 2.578222e-001 2.681060e+000 190 204 217
7.079269e-001 2.578222e-001 2.681060e+000 190 204 217
7.408086e-001 2.645543e-001 2.693526e+000 79 92 108
6.999823e-001 6.483735e-003 2.351237e+000 203 221 233
8.823472e-001 1.146428e-001 2.675894e+000 51 64 76
-1.805278e-001 6.942625e-001 2.233769e+000 79 72 59
-5.031426e-001 7.385736e-001 2.414027e+000 54 48 34
3.446479e-001 9.650803e-001 2.275476e+000 123 111 95
-4.930534e-001 8.946481e-001 2.533938e+000 91 82 71
3.311839e-001 8.637661e-001 2.208101e+000 76 67 53
-2.304456e-001 9.114124e-001 2.418222e+000 128 112 90
-5.780903e-001 9.128187e-001 2.594468e+000 49 31 19
3.285730e-001 4.945691e-001 2.017624e+000 51 50 42
-1.208606e-001 1.013460e+000 2.449035e+000 40 41 31
-2.971543e-001 7.599357e-001 2.334704e+000 48 45 38
-3.346449e-001 6.087666e-001 2.233561e+000 130 114 88
-3.178365e-001 8.876636e-001 2.442697e+000 39 36 31
-5.803904e-001 1.226092e+000 2.857605e+000 140 133 114
7.542695e-001 4.350207e-001 2.065903e+000 133 62 72
-1.746491e-001 8.516631e-001 2.359988e+000 66 59 44
-3.054451e-001 1.154389e+000 2.641944e+000 46 42 34
-3.134025e-001 1.200561e+000 2.679974e+000 119 103 78
-3.134025e-001 1.200561e+000 2.679974e+000 119 103 78
-5.232990e-001 8.004006e-001 2.473672e+000 55 42 34
-3.136930e-001 5.508275e-001 2.171633e+000 116 105 88
-2.559645e-001 1.069060e+000 2.548522e+000 127 110 93
-2.559645e-001 1.069060e+000 2.548522e+000 127 110 93
-5.815615e-001 5.040898e-001 2.186481e+000 131 118 98
-5.354313e-001 6.914393e-001 2.376070e+000 127 113 93
-5.260702e-001 6.838972e-001 2.387577e+000 127 113 93
-5.546466e-001 5.313967e-001 2.264035e+000 41 32 22
-5.182516e-001 8.827557e-001 2.512881e+000 42 37 30
2.123503e-001 9.603204e-001 2.274317e+000 129 116 99
-1.576820e-001 5.619966e-001 2.165103e+000 92 84 71
-2.188464e-001 9.295452e-001 2.472490e+000 121 108 89
-2.473835e-001 9.344171e-001 2.443338e+000 49 42 33
-3.179599e-001 7.848386e-001 2.360576e+000 122 114 93
-2.694190e-001 1.013385e+000 2.552980e+000 45 38 28
-2.759836e-001 1.226447e+000 2.679090e+000 119 104 84
-3.440123e-001 8.241068e-001 2.403861e+000 122 110 96
-3.410798e-001 9.262955e-001 2.481393e+000 46 38 35
-3.261090e-001 9.152742e-001 2.492674e+000 46 38 35
-3.256712e-001 1.057152e+000 2.574661e+000 46 40 28
-3.289428e-001 1.028830e+000 2.553372e+000 39 32 24
-4.732428e-001 8.687714e-001 2.504309e+000 48 40 27
3.227178e-001 1.046781e+000 2.284379e+000 59 43 28
3.101428e-001 9.449999e-001 2.249763e+000 132 120 104
2.333076e-001 1.931589e+000 3.005247e+000 41 34 22
-1.622816e-001 5.851420e-001 2.183040e+000 44 37 27
-2.531061e-001 1.009796e+000 2.505921e+000 128 117 98
-2.997213e-001 1.166060e+000 2.654084e+000 112 104 89
-3.512823e-001 1.540769e+000 3.025469e+000 102 93 75
3.438709e-001 8.510463e-001 2.213038e+000 129 117 102
3.248654e-001 6.592429e-001 2.117778e+000 134 123 105
2.202398e-001 8.445608e-001 2.224142e+000 134 121 105
6.484389e-002 1.634771e+000 2.849564e+000 31 24 11
-5.076836e-001 7.969833e-001 2.456069e+000 123 113 98
3.296052e-001 6.748185e-001 2.076118e+000 61 50 32
3.296052e-001 6.748185e-001 2.076118e+000 61 50 32
2.235792e-001 9.146443e-001 2.247578e+000 132 119 102
-1.285949e-001 9.126112e-001 2.420862e+000 111 107 96
-3.087284e-001 4.926073e-001 2.132210e+000 49 36 24
-2.104493e-001 1.116731e+000 2.587407e+000 120 105 88
-3.279193e-001 6.073192e-001 2.240538e+000 137 126 105
-2.631423e-001 9.562036e-001 2.467822e+000 130 118 104
3.404808e-001 8.908621e-001 2.215004e+000 147 135 121
-5.073973e-001 7.885971e-001 2.461224e+000 133 125 106
-4.967409e-001 8.211196e-001 2.476669e+000 144 138 122
3.316427e-001 8.361473e-001 2.190447e+000 144 135 117
-2.007671e-001 6.822847e-001 2.241009e+000 34 28 16
2.349945e-001 9.697568e-001 2.336218e+000 147 134 118
2.275193e-001 1.002435e+000 2.321322e+000 147 134 118
-4.876801e-001 9.146686e-001 2.543738e+000 141 132 120
-1.572587e-001 9.582222e-001 2.407418e+000 132 124 112
-1.572587e-001 9.582222e-001 2.407418e+000 132 124 112
-3.533559e-001 8.369102e-001 2.478219e+000 62 53 43
3.447752e-001 8.962743e-001 2.230275e+000 130 118 104
8.504435e-001 1.989470e-001 2.703479e+000 51 63 75
8.984254e-001 1.253466e-001 2.662427e+000 47 57 71
2.964463e-001 7.390919e-001 2.141457e+000 65 52 36
2.945136e-001 7.348814e-001 2.138109e+000 65 52 36
-1.489857e-001 1.326284e+000 2.697746e+000 140 127 110
-1.875281e-001 1.008475e+000 2.477478e+000 60 58 54
-9.089471e-003 1.585781e+000 2.787952e+000 63 59 51
-2.548505e-001 1.337840e+000 2.744511e+000 57 57 50
-2.736775e-002 1.167131e+000 2.524798e+000 50 41 36
-4.090320e-001 1.657700e+000 3.054829e+000 48 38 32
-5.455993e-001 7.856136e-001 2.447961e+000 148 143 131
6.821991e-002 1.650814e+000 2.862122e+000 154 146 136
1.186095e-001 1.648390e+000 2.849759e+000 147 142 131
-5.132940e-001 9.190605e-001 2.548049e+000 139 140 128
-2.705250e-001 1.238692e+000 2.685511e+000 139 127 110
-5.401181e-001 7.251908e-001 2.428901e+000 57 55 56
-2.674225e-001 1.036080e+000 2.532300e+000 142 129 112
-2.430186e-001 9.654638e-001 2.464913e+000 53 54 47
-3.515209e-001 1.178093e+000 2.681429e+000 144 132 116
-1.184853e-001 1.206384e+000 2.590652e+000 67 60 52
-3.208352e-001 1.145477e+000 2.646245e+000 146 134 119
3.145938e-001 7.290529e-001 2.133146e+000 144 136 123
3.145938e-001 7.290529e-001 2.133146e+000 144 136 123
-1.900470e-001 8.305005e-001 2.332135e+000 127 119 111
-4.826381e-001 8.806955e-001 2.524236e+000 122 116 104
2.300293e-001 1.002803e+000 2.334184e+000 72 60 43
2.378199e-001 1.000358e+000 2.331493e+000 153 141 125
2.452253e-001 9.328336e-001 2.280708e+000 88 79 62
1.134341e-001 3.190824e+000 2.378657e+000 174 190 203
-1.615773e-001 3.283903e+000 2.368993e+000 159 173 184
-9.309221e-002 3.266043e+000 2.367058e+000 159 173 184
-3.711486e-001 7.910546e-001 2.392330e+000 46 45 43
-3.211314e-001 6.225664e-001 2.247025e+000 50 47 40
-3.929582e-001 1.628224e+000 3.057782e+000 48 33 25
-3.045878e-001 1.349445e+000 2.785514e+000 110 100 82
-2.229652e-001 1.382898e+000 2.777333e+000 131 119 103
-2.967003e-001 6.549002e-001 2.262050e+000 38 31 24
1.169252e+000 3.293585e-001 2.094455e+000 180 198 212
2.664733e-001 1.928524e+000 2.988846e+000 34 30 19
1.028461e+000 1.042058e+000 3.387731e+000 48 38 29
-2.820505e-001 1.065921e+000 2.560659e+000 39 35 26
-3.816405e-001 6.668171e-001 2.300159e+000 120 108 87
1.249675e-001 1.623358e+000 2.824786e+000 111 98 82
-2.023226e-001 5.848128e-001 2.174625e+000 99 93 81
-2.023226e-001 5.848128e-001 2.174625e+000 99 93 81
-2.197792e-001 1.159282e+000 2.605880e+000 113 95 78
-5.125301e-001 8.590195e-001 2.510401e+000 138 126 106
-3.014611e-001 1.259465e+000 2.722805e+000 55 49 39
2.213915e-001 1.670908e+000 2.815517e+000 134 122 109
2.838122e-001 1.959606e+000 3.005352e+000 134 119 104
-2.499016e-001 1.902648e+000 3.172115e+000 52 51 47
3.383168e-001 1.884549e+000 2.976554e+000 148 141 130
3.359249e-001 1.887990e+000 2.962745e+000 148 141 130
-2.619799e-001 1.327336e+000 2.745798e+000 58 59 54
-2.619799e-001 1.327336e+000 2.745798e+000 58 59 54
-4.148916e-001 8.505011e-001 2.455037e+000 142 129 112
-3.202922e-001 5.819803e-001 2.209092e+000 141 129 111
2.349453e-001 9.884747e-001 2.317333e+000 81 70 59
-3.542202e-001 9.933567e-001 2.535210e+000 142 130 114
-3.561445e-001 1.013370e+000 2.554097e+000 54 53 52
-2.016229e-001 6.279022e-001 2.198705e+000 113 106 93
-3.482760e-001 6.701931e-001 2.285418e+000 133 125 106
-1.843315e-001 1.008667e+000 2.476161e+000 59 56 53
-5.499028e-001 8.004887e-001 2.484636e+000 146 133 115
-5.186327e-001 5.839302e-001 2.301706e+000 138 127 109
-3.408163e-001 1.061462e+000 2.581844e+000 144 132 116
-2.653285e-001 1.571532e+000 2.937468e+000 137 129 111
-3.689280e-001 6.368678e-001 2.269852e+000 119 111 105
-3.011377e-001 6.184880e-001 2.230257e+000 145 138 120
-3.225742e-001 1.320604e+000 2.770947e+000 62 58 48
-1.706319e-001 1.020417e+000 2.478939e+000 141 130 112
-5.861341e-001 4.794256e-001 2.228848e+000 62 53 44
-3.064421e-001 1.258413e+000 2.713630e+000 132 125 107
-5.192675e-001 6.734871e-001 2.366408e+000 103 99 90
-1.566470e-001 9.077244e-001 2.387720e+000 55 51 44
-2.356402e-001 8.768492e-001 2.399725e+000 145 130 109
-2.537376e-001 1.265188e+000 2.638272e+000 140 125 106
-2.711530e-001 8.509389e-001 2.406418e+000 54 49 43
-2.403193e-001 1.188232e+000 2.595439e+000 143 128 106
-2.775578e-001 1.081030e+000 2.563487e+000 48 47 42
-3.193481e-001 8.858256e-001 2.447610e+000 51 46 38
-1.890208e-001 1.334910e+000 2.667719e+000 44 45 40
-3.464539e-001 1.072424e+000 2.588012e+000 47 47 39
-3.464539e-001 1.072424e+000 2.588012e+000 47 47 39
-3.559407e-001 1.008968e+000 2.552811e+000 50 45 42
-3.671400e-001 9.343517e-001 2.509636e+000 50 46 39
-3.963519e-001 6.744931e-001 2.325936e+000 57 54 47
-1.267834e-002 1.560487e+000 2.899274e+000 50 44 36
-3.013718e-001 8.153563e-001 2.394458e+000 54 49 46
-3.462122e-001 5.245555e-001 2.170596e+000 141 128 111
-3.410023e-001 9.560735e-001 2.512264e+000 58 50 48
2.338780e-001 1.737752e+000 2.783020e+000 135 120 97
-3.537754e-002 1.550262e+000 2.917149e+000 45 37 31
-2.236804e-001 1.314989e+000 2.799487e+000 43 42 31
-2.749746e-001 1.098157e+000 2.570288e+000 48 48 42
-2.787249e-001 1.068754e+000 2.551767e+000 49 47 38
-2.787634e-001 1.068552e+000 2.552008e+000 49 47 38
-3.444544e-001 9.220941e-001 2.487058e+000 57 51 41
3.428750e-001 1.764308e+000 2.709998e+000 130 121 104
-2.607734e-001 1.277882e+000 2.662178e+000 52 45 32
-2.922780e-001 1.285885e+000 2.721130e+000 47 42 33
2.439031e-001 9.942954e-001 2.313692e+000 142 130 115
-3.410091e-001 1.038454e+000 2.571515e+000 142 130 106
-4.757815e-001 8.755290e-001 2.517271e+000 147 138 123
-5.848022e-001 4.852501e-001 2.275990e+000 143 132 113
-1.770152e-001 8.942591e-001 2.387429e+000 48 44 33
-3.021349e-001 7.193655e-001 2.313358e+000 142 135 119
-4.869116e-001 8.942771e-001 2.542289e+000 142 134 118
-5.016274e-001 7.863045e-001 2.468804e+000 45 38 20
-4.991754e-001 9.041732e-001 2.532202e+000 103 94 80
-4.941830e-001 8.576687e-001 2.499065e+000 135 126 112
-4.606227e-001 8.926409e-001 2.526138e+000 68 58 49
-1.472960e-001 6.160115e-001 2.642301e+000 150 63 71
-1.723963e-001 5.814844e-001 2.585158e+000 148 65 72
-5.424567e-001 5.854610e-001 2.302432e+000 123 108 88
-5.424567e-001 5.854610e-001 2.302432e+000 123 108 88
-5.207452e-001 6.594322e-001 2.352082e+000 127 114 94
-5.094125e-001 7.959503e-001 2.454780e+000 117 108 93
-5.483257e-001 7.821819e-001 2.440318e+000 50 44 32
-5.288812e-001 8.183124e-001 2.466178e+000 124 116 103
-4.995475e-001 7.905946e-001 2.449415e+000 40 28 19
5.467369e-002 1.648301e+000 2.865547e+000 125 110 89
-5.372405e-001 1.619638e+000 3.065265e+000 30 16 11
-4.999594e-001 7.927097e-001 2.454277e+000 31 22 8
-5.449980e-001 5.033675e-001 2.242244e+000 130 122 104
-4.986298e-001 9.039877e-001 2.532398e+000 103 94 80
-5.009184e-001 9.169236e-001 2.537266e+000 55 48 41
-5.009184e-001 9.169236e-001 2.537266e+000 55 48 41
-4.980996e-001 8.213800e-001 2.476876e+000 144 138 122
-4.885660e-001 7.928662e-001 2.458698e+000 145 136 121
-4.830015e-001 8.648660e-001 2.503969e+000 64 58 42
3.292540e-001 1.896001e+000 2.947041e+000 120 112 102
3.292540e-001 1.896001e+000 2.947041e+000 120 112 102
-2.734608e-001 1.853345e+000 3.211984e+000 145 132 113
-1.859598e-001 1.882353e+000 3.198912e+000 140 127 110
-3.265885e-001 1.906335e+000 3.294720e+000 130 117 98
-5.845956e-001 9.554866e-001 2.628787e+000 148 139 124
-4.943732e-001 6.634212e-001 2.350438e+000 64 63 65
-4.772947e-001 1.857139e+000 3.323791e+000 145 133 116
-2.248697e-001 1.114124e+000 2.571110e+000 58 62 58
1.156293e-001 1.653088e+000 2.837325e+000 59 52 44
-2.922470e-001 9.911086e-001 2.506283e+000 156 151 137
-4.932404e-001 8.280835e-001 2.470774e+000 141 141 131
-4.974134e-001 7.949656e-001 2.446330e+000 56 54 39
-1.961966e-001 1.007735e+000 2.474990e+000 60 56 45
-5.260176e-001 8.510316e-001 2.482821e+000 145 144 133
-5.630051e-001 6.066674e-001 2.308403e+000 58 58 47
-4.732115e-001 8.129015e-001 2.466602e+000 139 125 106
-4.732115e-001 8.129015e-001 2.466602e+000 139 125 106
-5.336495e-001 7.577658e-001 2.430438e+000 134 121 102
-5.179088e-001 5.820289e-001 2.301871e+000 138 127 109
-5.243918e-001 8.777655e-001 2.514466e+000 53 39 28
-5.354707e-001 7.975902e-001 2.463824e+000 133 124 111
-5.032952e-001 8.493954e-001 2.496687e+000 59 52 42
-4.835156e-001 8.503254e-001 2.494209e+000 60 51 43
-4.969471e-001 7.437268e-001 2.423471e+000 137 124 105
-2.001199e-002 3.401144e-001 4.358108e+000 51 37 27
-5.039760e-001 8.168538e-001 2.429460e+000 141 133 120
1.122619e+001 1.408201e+001 -2.927025e+001 100 98 87
7.401979e-001 1.539125e+000 3.796359e+000 148 140 122
7.174548e-001 1.466262e+000 3.720440e+000 151 143 124
7.560031e-001 1.566357e+000 3.820973e+000 154 148 126
-1.491078e-003 6.417732e-001 2.847737e+000 155 65 74
-7.587181e-002 6.990124e-001 2.784415e+000 158 140 116
-5.232047e-001 5.090684e-001 2.252775e+000 155 138 110
-5.303039e-001 4.679136e-001 2.218007e+000 160 140 114
-4.879755e-001 7.433034e-001 2.443114e+000 68 64 54
-5.466648e-001 5.057414e-001 2.232625e+000 162 142 116
-1.135959e-001 6.530342e-001 2.715798e+000 152 70 74
-4.547738e-001 1.470171e+000 3.122235e+000 56 49 38
-9.390504e-002 6.419320e-001 2.725447e+000 148 67 70
-2.482467e-001 4.586371e-001 2.408692e+000 160 143 117
-5.616638e-001 6.085063e-001 2.306614e+000 68 62 56
-5.775648e-001 5.059127e-001 2.223388e+000 164 146 123
-4.859558e-001 8.742513e-001 2.521520e+000 156 144 123
-4.859558e-001 8.742513e-001 2.521520e+000 156 144 123
-4.880726e-001 8.990332e-001 2.534799e+000 167 158 138
-5.191627e-001 8.211915e-001 2.462569e+000 82 67 53
-6.444677e-001 3.888461e-001 2.121537e+000 184 166 142
-1.916393e-001 1.201549e+000 2.842313e+000 145 126 96
-1.149739e-001 1.095933e+000 2.790322e+000 140 122 98
-3.023442e-001 1.216138e+000 2.823850e+000 137 117 90
-9.240902e-002 1.362277e+000 2.986110e+000 136 119 94
-5.227937e-001 8.041211e-001 2.447650e+000 143 127 107
-2.184780e-001 1.222078e+000 2.848776e+000 66 49 40
-1.183291e-001 1.175722e+000 2.845723e+000 51 34 26
-1.183291e-001 1.175722e+000 2.845723e+000 51 34 26
-1.876107e-001 1.361291e+000 2.959667e+000 59 44 30
-4.619570e-001 9.158243e-001 2.550827e+000 72 63 54
-4.619570e-001 9.158243e-001 2.550827e+000 72 63 54
-5.323807e-001 5.075355e-001 2.241578e+000 43 36 30
-5.084602e-001 8.283256e-001 2.475752e+000 81 74 66
-5.084602e-001 8.283256e-001 2.475752e+000 81 74 66
-5.253629e-001 6.081673e-001 2.316180e+000 84 75 65
-5.253629e-001 6.081673e-001 2.316180e+000 84 75 65
-4.730125e-001 8.959197e-001 2.536387e+000 45 37 25
-1.892494e-001 -2.429808e-001 2.944351e+000 87 80 64
1.512617e-001 -5.481928e-001 3.373856e+000 48 39 24
5.160484e-001 -4.278602e-001 3.119261e+000 134 118 92
5.160484e-001 -4.278602e-001 3.119261e+000 134 118 92
3.917399e-001 -5.147750e-001 3.278341e+000 124 107 81
1.127938e-001 -5.506662e-001 3.377421e+000 127 110 84
3.087696e-002 -3.653051e-001 3.069892e+000 128 113 92
3.736609e-001 -3.659606e-001 3.026935e+000 132 117 94
3.736609e-001 -3.659606e-001 3.026935e+000 132 117 94
6.131051e-002 -4.100747e-001 3.136321e+000 127 112 91
6.404076e-002 -3.721510e-001 3.085921e+000 83 75 62
3.515555e-001 -3.562261e-001 3.010846e+000 81 72 55
2.813481e-001 -3.703703e-001 3.049462e+000 128 120 101
2.187360e-001 -4.118364e-001 3.119208e+000 110 98 82
1.120928e-001 -4.585355e-001 3.216005e+000 128 112 87
6.842445e-001 1.253973e+000 3.486453e+000 70 71 64
3.207610e-001 -2.034118e-001 2.762201e+000 85 79 64
2.127483e-001 -2.317402e-001 2.821037e+000 137 122 101
3.139616e-001 -2.264263e-001 2.804719e+000 92 87 74
-1.302088e-001 -3.367924e-001 3.046101e+000 75 63 47
1.935202e-001 -4.358310e-001 3.168050e+000 67 54 38
2.127585e-001 -4.604458e-001 3.211464e+000 125 109 86
2.132024e-001 -5.116200e-001 3.297537e+000 125 108 83
2.132024e-001 -5.116200e-001 3.297537e+000 125 108 83
3.685179e-002 -5.788645e-001 3.446145e+000 122 104 79
3.572566e-001 -5.643289e-001 3.361100e+000 129 112 86
4.711944e-001 -1.953441e-001 2.719007e+000 134 125 108
3.940700e-001 -2.066562e-001 2.746122e+000 132 121 107
3.940700e-001 -2.066562e-001 2.746122e+000 132 121 107
1.576901e-001 -2.366870e-001 2.826620e+000 126 115 97
1.349709e-001 -2.366459e-001 2.834026e+000 127 115 96
-1.560487e-002 -2.494672e-001 2.881232e+000 89 82 66
3.733737e-001 -2.145353e-001 2.767326e+000 133 120 103
3.235253e-001 -2.196801e-001 2.788816e+000 132 122 105
3.235253e-001 -2.196801e-001 2.788816e+000 132 122 105
-1.798863e-001 -3.206279e-001 3.022249e+000 71 62 49
-1.798863e-001 -3.206279e-001 3.022249e+000 71 62 49
6.914013e-002 -3.237879e-001 2.988150e+000 130 119 99
6.191844e-001 -3.131121e-001 2.892041e+000 132 117 98
5.785922e-001 -3.165631e-001 2.906378e+000 129 115 93
-1.402798e-003 -3.730275e-001 3.089836e+000 133 120 103
5.496948e-001 -3.171152e-001 2.917991e+000 127 111 93
5.745110e-001 -3.267283e-001 2.928306e+000 130 117 98
5.745110e-001 -3.267283e-001 2.928306e+000 130 117 98
5.310463e-001 -4.122845e-001 3.088102e+000 63 57 44
4.372327e-001 -4.275626e-001 3.129236e+000 131 116 96
3.789982e-001 -4.375924e-001 3.150059e+000 131 117 93
2.959793e-001 -4.452107e-001 3.177218e+000 132 117 97
2.423187e-001 -4.521265e-001 3.196505e+000 132 117 94
2.253223e-001 -4.561464e-001 3.202893e+000 127 110 88
1.779271e-001 -4.594004e-001 3.219414e+000 127 111 92
-2.498066e-002 -4.911874e-001 3.293687e+000 118 103 82
-2.498066e-002 -4.911874e-001 3.293687e+000 118 103 82
3.112528e-001 -4.670527e-001 3.206064e+000 127 111 87
3.112528e-001 -4.670527e-001 3.206064e+000 127 111 87
-4.308534e-002 -5.103711e-001 3.321758e+000 126 109 91
2.377723e-001 -4.777801e-001 3.233597e+000 127 111 86
2.679312e-001 -4.838778e-001 3.244760e+000 127 112 89
3.281398e-001 -4.880589e-001 3.238954e+000 124 109 86
2.206020e-001 -4.993080e-001 3.276196e+000 126 110 87
3.304201e-001 -4.982823e-001 3.257561e+000 127 113 86
3.076665e-001 -5.004432e-001 3.264583e+000 127 111 86
2.534095e-001 -5.064919e-001 3.283789e+000 130 114 89
2.709544e-001 -5.139928e-001 3.300230e+000 119 104 82
2.709544e-001 -5.139928e-001 3.300230e+000 119 104 82
2.323080e-001 -5.455743e-001 3.350334e+000 124 108 82
4.072124e-001 -5.282371e-001 3.309788e+000 119 102 85
4.072124e-001 -5.282371e-001 3.309788e+000 119 102 85
4.072124e-001 -5.282371e-001 3.309788e+000 119 102 85
1.867403e-003 -5.824850e-001 3.444895e+000 55 48 37
1.753090e-001 -5.781677e-001 3.413916e+000 121 106 80
4.791726e-001 -5.459439e-001 3.320954e+000 125 107 83
6.989136e-001 1.363063e+000 3.607765e+000 156 145 123
7.063812e-001 1.391426e+000 3.637675e+000 157 146 126
7.609895e-001 1.553065e+000 3.804042e+000 160 149 129
2.523392e-001 -2.909155e-001 2.658671e+000 125 143 153
3.515489e-001 -2.091103e-001 2.752854e+000 70 62 50
4.981311e-001 -2.068206e-001 2.730588e+000 129 121 102
4.249069e-001 -2.143109e-001 2.753477e+000 125 116 99
4.810632e-001 -2.017781e-001 2.735703e+000 125 119 97
-1.341180e-002 -2.622538e-001 2.898206e+000 122 114 95
4.941047e-001 -2.082935e-001 2.742363e+000 62 58 47
4.622330e-001 -2.036012e-001 2.749888e+000 59 55 44
3.940436e-001 -2.162543e-001 2.775443e+000 61 55 41
3.940436e-001 -2.162543e-001 2.775443e+000 61 55 41
1.967863e-001 -2.384353e-001 2.839644e+000 79 67 53
6.092812e-002 -3.180044e-001 2.972168e+000 131 118 99
4.444700e-002 -3.159884e-001 2.981983e+000 135 123 106
-1.061297e-001 -3.421692e-001 3.051256e+000 128 115 99
-1.061297e-001 -3.421692e-001 3.051256e+000 128 115 99
9.484599e-002 -3.293943e-001 2.998649e+000 134 120 103
-8.994253e-002 -3.645202e-001 3.085023e+000 130 119 102
-8.994253e-002 -3.645202e-001 3.085023e+000 130 119 102
-7.276021e-002 -3.625658e-001 3.079867e+000 122 110 94
-5.345309e-002 -3.629260e-001 3.077871e+000 131 119 104
5.310221e-001 -3.189240e-001 2.921650e+000 134 122 105
3.919648e-001 -3.343202e-001 2.971570e+000 129 121 102
-5.619397e-002 -3.872606e-001 3.114541e+000 120 107 91
-6.582323e-002 -4.072940e-001 3.159379e+000 126 109 91
1.102817e-001 -4.093516e-001 3.133767e+000 121 110 92
8.945621e-002 -4.149105e-001 3.145405e+000 114 103 83
3.277169e-001 -3.962988e-001 3.080508e+000 125 116 97
3.277169e-001 -3.962988e-001 3.080508e+000 125 116 97
5.691125e-002 -4.259187e-001 3.173155e+000 126 113 97
4.298989e-002 -4.333724e-001 3.179455e+000 126 113 96
1.496507e-001 -4.267709e-001 3.160427e+000 123 115 96
6.555238e-002 -4.355390e-001 3.190896e+000 127 112 93
2.029574e-001 -4.285797e-001 3.153373e+000 130 114 91
9.376200e-002 -4.684523e-001 3.246836e+000 117 107 88
8.226799e-002 -4.733975e-001 3.251135e+000 123 111 86
7.242100e-002 -4.755228e-001 3.254844e+000 117 105 81
-4.380042e-003 -4.890669e-001 3.284507e+000 133 118 97
4.124052e-001 -4.389308e-001 3.150126e+000 127 111 88
2.399583e-001 -4.668170e-001 3.209691e+000 56 44 29
1.842509e-001 -4.695316e-001 3.229705e+000 129 116 93
9.075838e-002 -4.871249e-001 3.264336e+000 121 107 83
9.075838e-002 -4.871249e-001 3.264336e+000 121 107 83
-1.474138e-003 -5.011071e-001 3.302155e+000 122 106 83
1.946007e-001 -4.863578e-001 3.250355e+000 129 115 90
-1.995645e-002 -5.126029e-001 3.328974e+000 117 106 86
-1.995645e-002 -5.126029e-001 3.328974e+000 117 106 86
2.382966e-001 -4.858149e-001 3.253951e+000 124 111 92
1.666979e-001 -4.922393e-001 3.278506e+000 124 107 85
2.622260e-001 -5.221755e-001 3.314202e+000 124 107 84
3.437346e-001 -5.361681e-001 3.313234e+000 123 107 81
4.898333e-001 -5.197425e-001 3.277962e+000 121 105 78
3.233555e-001 -5.402633e-001 3.335999e+000 119 106 85
3.233555e-001 -5.402633e-001 3.335999e+000 119 106 85
2.423833e-001 -5.518153e-001 3.366780e+000 117 105 81
2.423833e-001 -5.518153e-001 3.366780e+000 117 105 81
5.070116e-001 -5.337599e-001 3.300866e+000 62 50 33
4.833765e-001 -5.357992e-001 3.309289e+000 59 47 30
4.615423e-001 -5.471212e-001 3.328225e+000 123 107 84
3.409950e-001 -5.639142e-001 3.371024e+000 124 109 85
4.065379e-001 -3.604930e-001 2.553838e+000 72 89 99
4.558529e-001 -3.501537e-001 2.547342e+000 77 94 104
4.451065e-001 -3.450688e-001 2.552283e+000 179 193 204
4.601312e-001 -3.406435e-001 2.552327e+000 182 199 207
5.215029e-002 -2.673823e-001 2.754429e+000 165 182 190
3.948856e-001 -1.921697e-001 2.728505e+000 84 73 57
3.948856e-001 -1.921697e-001 2.728505e+000 84 73 57
4.608139e-001 -1.998584e-001 2.718480e+000 77 70 52
4.929490e-001 -2.029174e-001 2.720247e+000 80 72 53
-4.960644e-002 -2.506681e-001 2.892262e+000 73 64 47
4.762127e-001 -2.077205e-001 2.745841e+000 77 70 53
1.610429e-001 -2.452732e-001 2.847045e+000 124 115 98
1.468241e-001 -2.458104e-001 2.851745e+000 115 107 88
3.776888e-001 -2.210143e-001 2.780190e+000 70 62 49
3.776888e-001 -2.210143e-001 2.780190e+000 70 62 49
1.786918e-001 -2.391346e-001 2.844592e+000 63 55 40
