ply
format ascii 1.0
element face 0
property list uchar int vertex_indices
element vertex 836
property float x
property float y
property float z
property uchar diffuse_red
property uchar diffuse_green
property uchar diffuse_blue
end_header
-5.126921e-001 5.886443e-001 2.548043e+000 46 48 37
-5.175781e-001 5.131734e-001 2.495052e+000 50 49 45
-5.462941e-001 4.961847e-001 2.492119e+000 125 112 95
-4.969069e-001 6.652371e-001 2.598018e+000 43 43 38
-4.998412e-001 6.322100e-001 2.575788e+000 56 47 42
-5.012005e-001 6.304052e-001 2.576167e+000 56 47 42
-5.428328e-001 4.213392e-001 2.426736e+000 127 113 94
-5.514146e-001 4.532676e-001 2.460136e+000 126 114 93
-5.573176e-001 6.600077e-001 2.621817e+000 49 50 44
-5.783795e-001 5.398619e-001 2.530824e+000 49 46 37
-5.795343e-001 5.117883e-001 2.511391e+000 44 45 38
-4.894440e-001 7.035753e-001 2.628721e+000 49 39 33
-5.101887e-001 5.440564e-001 2.512204e+000 47 43 34
-5.122920e-001 6.795783e-001 2.611563e+000 123 109 86
-5.216712e-001 7.968282e-001 2.712666e+000 131 113 95
-4.829390e-001 7.778500e-001 2.676179e+000 50 45 37
-4.951058e-001 8.502513e-001 2.741573e+000 116 101 80
-5.320649e-001 8.647432e-001 2.761551e+000 61 48 34
-5.387725e-001 8.049440e-001 2.717619e+000 48 38 25
-5.474030e-001 7.890203e-001 2.704199e+000 40 33 21
2.470903e-001 5.612569e-001 2.237706e+000 64 52 35
2.253772e-001 5.927681e-001 2.265755e+000 58 44 31
2.747458e-001 8.311957e-001 2.429852e+000 62 53 36
-4.923035e-001 7.905023e-001 2.695523e+000 43 33 21
2.277448e-001 6.265543e-001 2.287321e+000 49 36 17
-5.667751e-001 6.274181e-001 2.592306e+000 58 51 45
-4.797315e-001 8.094487e-001 2.705191e+000 53 39 26
2.497359e-001 7.816501e-001 2.399178e+000 53 40 30
-5.526672e-001 7.602702e-001 2.688061e+000 48 39 32
-5.549662e-001 7.259642e-001 2.664184e+000 46 37 23
-1.215419e-001 9.209711e-001 2.654671e+000 53 52 47
-2.417491e-001 6.973839e-001 2.520082e+000 130 113 95
-3.312925e-001 9.589496e-001 2.755434e+000 53 49 44
-3.312925e-001 9.589496e-001 2.755434e+000 53 49 44
-3.248927e-001 4.983804e-001 2.389943e+000 124 110 89
-1.212365e-001 7.347226e-001 2.507274e+000 49 50 44
3.477510e-001 6.615473e-001 2.275313e+000 140 133 117
-3.130147e-001 1.228076e+000 2.953648e+000 44 44 35
-3.043769e-001 9.410855e-001 2.730429e+000 129 114 94
-3.326955e-001 6.829559e-001 2.543190e+000 46 46 39
-2.581493e-001 9.037719e-001 2.682760e+000 128 113 91
-2.581493e-001 9.037719e-001 2.682760e+000 128 113 91
-2.731647e-001 7.082902e-001 2.540548e+000 128 111 90
-2.478491e-001 8.684849e-001 2.654562e+000 52 48 41
-2.324197e-001 9.168248e-001 2.681088e+000 50 50 43
-2.791265e-001 5.036065e-001 2.401137e+000 47 46 40
-2.245627e-001 9.633780e-001 2.714273e+000 42 41 37
-2.901961e-001 4.805013e-001 2.366974e+000 44 48 42
-5.704227e-001 5.943663e-001 2.568826e+000 49 47 39
-5.667751e-001 6.274181e-001 2.592306e+000 58 51 45
-4.886939e-001 7.756104e-001 2.683593e+000 49 46 39
-4.886939e-001 7.756104e-001 2.683593e+000 49 46 39
-4.002515e-001 5.517882e-001 2.471230e+000 51 49 43
-3.485705e-001 6.595594e-001 2.534864e+000 127 112 87
-3.131303e-001 9.018296e-001 2.705400e+000 127 110 92
-3.545767e-001 5.093576e-001 2.422735e+000 49 43 40
-3.545767e-001 5.093576e-001 2.422735e+000 49 43 40
-2.909221e-001 7.745800e-001 2.597195e+000 48 47 37
-3.209018e-001 5.454675e-001 2.429490e+000 49 48 42
-3.011663e-001 6.631975e-001 2.516740e+000 131 114 94
-5.258308e-001 4.805952e-001 2.472675e+000 133 118 97
-3.997330e-001 5.003638e-001 2.434570e+000 50 47 40
-2.858544e-001 5.469664e-001 2.413661e+000 48 47 43
3.023797e-001 1.902427e+000 3.248050e+000 45 41 31
-3.814442e-001 6.181150e-001 2.514292e+000 124 109 89
-3.708227e-001 5.542688e-001 2.461661e+000 119 114 97
-3.670864e-001 5.837522e-001 2.481927e+000 47 44 38
-3.225146e-001 8.083371e-001 2.634262e+000 53 53 45
-3.148182e-001 8.538930e-001 2.671138e+000 61 57 48
-3.148182e-001 8.538930e-001 2.671138e+000 61 57 48
-2.475712e-001 1.342773e+000 3.016234e+000 57 47 41
-3.343144e-001 5.699180e-001 2.457771e+000 133 121 104
-3.023296e-001 5.351101e-001 2.416432e+000 137 124 105
2.413299e-001 6.103491e-001 2.279124e+000 137 124 102
-1.480562e-001 6.575284e-001 2.457871e+000 63 58 47
-1.299592e-001 8.293647e-001 2.561562e+000 127 118 105
3.832720e-001 9.091490e-001 2.448762e+000 139 125 112
-3.254936e-001 1.025956e+000 2.803487e+000 43 43 35
-3.682646e-001 6.007513e-001 2.500055e+000 50 46 43
-2.592338e-001 1.202399e+000 2.910447e+000 129 114 91
-3.114926e-001 4.937431e-001 2.391400e+000 127 111 88
-1.917149e-001 7.380062e-001 2.525725e+000 46 47 39
-1.636708e-001 6.528574e-001 2.458911e+000 37 29 19
-3.043219e-001 4.928269e-001 2.391933e+000 127 111 88
-2.600454e-001 6.442251e-001 2.490169e+000 46 42 38
-2.755260e-001 5.898562e-001 2.451289e+000 47 42 36
-3.215319e-001 7.915033e-001 2.622374e+000 133 117 96
4.130200e-001 1.915907e+000 3.222710e+000 60 56 47
-3.635457e-001 6.596613e-001 2.541472e+000 128 116 93
-2.633552e-001 1.223695e+000 2.927463e+000 47 44 39
2.947164e-001 9.071769e-001 2.479824e+000 135 120 101
3.535861e-001 7.474940e-001 2.339878e+000 139 122 105
-4.877239e-001 8.019897e-001 2.695516e+000 137 125 104
2.753158e-001 9.343276e-001 2.507109e+000 54 43 33
-1.549092e-001 6.670153e-001 2.464223e+000 137 127 115
3.771318e-001 7.847777e-001 2.358150e+000 142 130 116
-5.504870e-001 4.139646e-001 2.426442e+000 126 113 97
-6.362295e-001 5.155982e-001 2.317460e+000 126 111 91
-4.897909e-001 7.150228e-001 2.857176e+000 62 52 40
7.755585e-001 -5.006854e-001 2.677784e+000 72 91 106
7.755585e-001 -5.006854e-001 2.677784e+000 72 91 106
-3.763246e-001 5.119485e-001 2.437339e+000 130 114 91
-2.741033e-001 7.066095e-001 2.541857e+000 128 111 90
8.266339e-002 1.568863e+000 3.072878e+000 130 115 94
2.832451e-001 8.630604e-001 2.449997e+000 134 118 95
8.476856e-001 -5.169104e-001 2.634057e+000 192 210 222
-5.454689e-001 5.972568e-001 2.561652e+000 45 42 35
-3.995474e-001 5.512574e-001 2.473357e+000 51 49 43
-3.683990e-001 4.021707e-001 2.348030e+000 48 46 40
8.117448e-001 -4.806673e-001 2.674371e+000 190 208 222
9.732902e-001 6.879900e-003 2.950161e+000 176 185 194
7.521581e-001 -5.321508e-001 2.663211e+000 181 199 213
8.035117e-001 -5.649946e-001 2.615105e+000 114 133 147
8.268381e-001 -5.505662e-001 2.616172e+000 191 209 223
9.783698e-001 -8.006360e-002 2.908342e+000 178 188 200
1.005800e+000 1.750059e-002 2.930446e+000 183 192 202
1.015859e+000 -1.623207e-002 2.908101e+000 191 201 211
1.054243e+000 2.494500e-002 2.904064e+000 188 196 207
1.099079e+000 -2.801404e-001 2.662806e+000 186 200 209
-5.749367e-001 5.285011e-001 2.520895e+000 133 119 102
-5.749367e-001 5.285011e-001 2.520895e+000 133 119 102
-5.212625e-001 7.420605e-001 2.658917e+000 46 43 36
-5.550371e-001 3.834903e-001 2.410646e+000 126 115 96
-3.709043e-001 5.539421e-001 2.462846e+000 119 114 97
1.274478e-001 1.616811e+000 3.086624e+000 132 120 106
7.420329e-001 -5.146574e-001 2.684456e+000 176 194 209
7.420329e-001 -5.146574e-001 2.684456e+000 176 194 209
8.115509e-001 -5.226442e-001 2.641810e+000 189 208 222
-3.124225e-001 5.277966e-001 2.423306e+000 124 113 90
-1.781784e-001 5.158941e-001 2.364679e+000 131 123 110
-1.592014e-001 5.642081e-001 2.391921e+000 42 35 27
-1.591693e-001 5.643323e-001 2.391561e+000 42 35 27
-7.963537e-002 9.567066e-001 2.658874e+000 46 45 39
3.176908e-001 5.336865e-001 2.186234e+000 136 123 107
3.517277e-001 7.679007e-001 2.350213e+000 138 125 108
3.815175e-001 8.632845e-001 2.411144e+000 66 53 37
6.926909e-001 -5.883029e-001 2.647427e+000 183 203 217
8.042766e-001 -5.486318e-001 2.624419e+000 184 206 220
1.004265e+000 -5.904920e-002 2.898938e+000 180 190 202
-5.108907e-001 7.985834e-001 2.696802e+000 133 122 104
-4.955891e-001 7.931921e-001 2.688674e+000 43 33 21
-1.718421e-001 7.497159e-001 2.534306e+000 139 132 120
-1.972235e-001 5.160411e-001 2.371367e+000 131 123 111
-1.881482e-001 5.207796e-001 2.359119e+000 137 129 117
-1.728035e-001 4.745556e-001 2.330555e+000 128 120 106
6.871341e-001 -6.185470e-001 2.622419e+000 181 200 214
1.006959e+000 -2.846203e-001 2.724485e+000 176 192 205
3.878556e-001 7.884649e-001 2.361674e+000 49 35 22
1.000689e+000 -1.928638e-002 2.919496e+000 66 78 90
1.026109e+000 -2.294975e-001 2.722399e+000 67 85 97
1.026109e+000 -2.294975e-001 2.722399e+000 67 85 97
1.070123e+000 5.495528e-002 2.905983e+000 189 201 213
1.070123e+000 5.495528e-002 2.905983e+000 189 201 213
5.825947e-001 -6.236446e-001 2.656147e+000 188 206 220
8.214917e-001 -3.747834e-001 2.751870e+000 124 143 155
7.575779e-001 -5.780134e-001 2.638746e+000 184 202 216
7.575779e-001 -5.780134e-001 2.638746e+000 184 202 216
4.802036e-001 -5.423131e-001 2.774237e+000 172 190 202
-2.631333e-001 9.813362e-001 2.741511e+000 131 114 95
4.802036e-001 -5.423131e-001 2.774237e+000 172 190 202
1.040702e+000 -3.360503e-002 2.891858e+000 182 192 202
-4.919410e-001 8.138998e-001 2.702015e+000 47 37 29
1.015859e+000 -1.623207e-002 2.908101e+000 191 201 211
6.003332e-001 -4.836286e-001 2.765938e+000 183 201 215
6.003332e-001 -4.836286e-001 2.765938e+000 183 201 215
5.269451e-001 -5.198651e-001 2.764873e+000 179 196 212
9.750407e-001 -2.884288e-001 2.748601e+000 173 189 202
7.906238e-001 -4.729127e-001 2.691217e+000 192 210 224
5.234562e-001 -5.323220e-001 2.758168e+000 177 196 211
1.569476e-001 1.590504e+000 3.063951e+000 53 43 34
1.028643e+000 3.592637e-002 2.920888e+000 54 65 77
9.914184e-001 2.179990e-002 2.958329e+000 164 174 184
7.872723e-001 -5.141637e-001 2.659281e+000 172 190 205
-5.555282e-001 7.269966e-001 2.650361e+000 46 37 23
3.685683e-001 7.726304e-001 2.342791e+000 137 125 109
3.509558e-001 7.677490e-001 2.349373e+000 138 125 108
9.825558e-001 -3.249337e-001 2.709109e+000 173 187 198
9.699222e-001 -4.080666e-002 2.928571e+000 176 190 202
3.463537e-001 6.005578e-001 2.223597e+000 45 37 19
-1.713904e-001 5.506655e-001 2.390737e+000 38 29 20
-1.801354e-001 5.056525e-001 2.358687e+000 51 44 36
-3.279193e-001 4.970791e-001 2.392575e+000 124 110 89
-5.181976e-001 6.617319e-001 2.591804e+000 49 45 36
-3.359151e-001 5.503484e-001 2.448825e+000 46 43 38
-2.758807e-001 1.284993e+000 2.978507e+000 128 117 107
-2.758807e-001 1.284993e+000 2.978507e+000 128 117 107
1.017280e+000 3.544367e-002 2.954190e+000 116 126 137
4.980856e-001 -5.233687e-001 2.779778e+000 78 97 112
9.803384e-001 -3.029386e-001 2.736632e+000 85 99 110
7.056953e-001 -5.086888e-001 2.700687e+000 110 132 146
-8.624605e-001 -5.699393e-001 3.178659e+000 99 87 71
2.003297e-001 -4.257429e-001 2.967039e+000 117 135 148
-1.640155e-001 4.282973e-001 2.288273e+000 47 44 39
-1.640155e-001 4.282973e-001 2.288273e+000 47 44 39
3.206597e-001 5.283781e-001 2.154210e+000 87 78 63
7.035451e-001 -5.977186e-001 2.638995e+000 163 182 197
7.035451e-001 -5.977186e-001 2.638995e+000 163 182 197
7.755585e-001 -5.006854e-001 2.677784e+000 72 91 106
3.153219e-001 -5.066410e-001 2.864599e+000 183 202 216
1.944872e-002 -4.106746e-001 3.032715e+000 164 180 193
-8.595547e-001 -7.582243e-001 3.037825e+000 114 108 92
3.020669e-001 -4.776648e-001 2.891471e+000 140 162 175
3.020669e-001 -4.776648e-001 2.891471e+000 140 162 175
-2.294663e-002 -4.148377e-001 3.047587e+000 161 176 189
-3.473118e-001 7.011872e-001 2.563805e+000 125 109 93
2.810089e-001 -4.778471e-001 2.895524e+000 182 201 215
2.588548e-001 -4.703281e-001 2.900691e+000 126 144 158
5.357013e-002 -4.524296e-001 2.995780e+000 162 180 192
1.520334e-001 -3.807679e-001 3.005536e+000 167 181 191
9.660563e-001 -2.820751e-001 2.759519e+000 173 189 201
-6.819140e-001 7.612015e-001 4.060824e+000 100 93 75
7.606937e-001 -5.135164e-001 2.671879e+000 112 134 148
3.603653e-001 -5.124605e-001 2.845494e+000 176 195 210
7.153166e-001 -4.805965e-001 2.727050e+000 107 128 142
1.119370e-001 -4.168915e-001 2.996116e+000 161 177 190
2.070719e-001 -3.883575e-001 2.982497e+000 162 178 188
8.930028e-002 -3.714522e-001 3.027114e+000 70 82 90
-3.006688e-001 5.327130e-001 2.421639e+000 137 124 105
-3.167644e-001 6.262591e-001 2.495062e+000 115 108 88
6.926909e-001 -5.883029e-001 2.647427e+000 183 203 217
7.905686e-001 -5.207616e-001 2.662052e+000 180 198 212
5.004693e-001 -5.177063e-001 2.780291e+000 104 123 138
5.392766e-001 -5.098391e-001 2.771441e+000 177 196 210
3.232981e-001 -4.778604e-001 2.880953e+000 176 195 209
1.088253e+000 7.799007e-002 2.942312e+000 184 195 204
-2.125034e-001 1.285400e+000 2.948982e+000 126 114 98
7.934227e-001 -5.774628e-001 2.610657e+000 185 203 217
8.210981e-001 -5.676388e-001 2.604940e+000 187 205 217
7.023453e-001 -5.585231e-001 2.668374e+000 181 200 214
5.207160e-001 -5.645469e-001 2.741677e+000 179 198 212
7.789226e-001 -5.358774e-001 2.647633e+000 182 201 215
7.872723e-001 -5.141637e-001 2.659281e+000 172 190 205
5.036107e-001 -5.268851e-001 2.773764e+000 171 190 205
6.914727e-001 -5.094893e-001 2.716832e+000 186 210 226
6.914727e-001 -5.094893e-001 2.716832e+000 186 210 226
2.014974e-001 -4.429875e-001 2.944505e+000 176 194 208
2.014974e-001 -4.429875e-001 2.944505e+000 176 194 208
1.907009e-001 -4.429881e-001 2.949882e+000 91 110 124
7.975461e-002 -4.374970e-001 2.993524e+000 156 174 186
2.077151e-001 -4.057834e-001 2.971756e+000 162 178 191
1.277982e-001 -3.959039e-001 3.003607e+000 166 182 192
1.054113e+000 3.650577e-002 2.933049e+000 84 94 106
-1.549354e-001 5.179353e-001 2.361589e+000 114 110 99
-1.549354e-001 5.179353e-001 2.361589e+000 114 110 99
-1.609596e-001 5.374171e-001 2.376530e+000 38 28 16
-1.892591e-001 5.421972e-001 2.390315e+000 129 121 110
2.387333e-001 6.706230e-001 2.329279e+000 137 124 107
-5.992474e-001 9.919183e-001 4.163505e+000 127 138 144
8.056293e-001 -5.392634e-001 2.632382e+000 77 100 114
8.056293e-001 -5.392634e-001 2.632382e+000 77 100 114
8.159173e-001 -5.023117e-001 2.657833e+000 191 210 225
6.761894e-001 -5.067120e-001 2.718428e+000 177 198 215
6.855276e-001 -5.045693e-001 2.720259e+000 79 105 120
1.946438e-001 -4.332313e-001 2.952716e+000 169 187 202
2.840804e-002 -4.428628e-001 3.010476e+000 162 180 194
1.029288e+000 -2.405392e-001 2.740447e+000 168 185 195
9.727179e-001 -6.681616e-002 2.911857e+000 166 176 188
1.008081e+000 -3.946590e-002 2.912442e+000 189 202 213
1.044742e+000 2.902470e-002 2.933603e+000 176 189 198
-2.071725e-001 4.734710e-001 2.347994e+000 133 126 108
-3.736948e-001 4.475772e-001 2.378900e+000 44 43 33
-3.738974e-001 4.482846e-001 2.378278e+000 44 43 33
-1.813054e-001 4.225657e-001 2.308384e+000 35 34 29
-1.813054e-001 4.225657e-001 2.308384e+000 35 34 29
3.535050e-001 2.029681e+000 3.110551e+000 121 118 97
3.535050e-001 2.029681e+000 3.110551e+000 121 118 97
4.775091e-001 1.865016e+000 3.157766e+000 132 115 95
4.367524e-001 1.699244e+000 3.014958e+000 136 121 98
-2.713919e-001 4.623880e-001 2.338034e+000 139 124 103
-1.661366e-001 4.262556e-001 2.291688e+000 48 48 44
-1.518694e-001 3.925946e-001 2.322209e+000 48 48 44
2.527863e-001 6.408040e-001 2.303918e+000 141 132 118
-6.168651e-001 3.968795e-001 2.460896e+000 136 121 100
-2.269105e-001 4.239062e-001 2.304726e+000 50 49 45
-1.328381e-001 7.025272e-001 2.465147e+000 43 45 39
2.876645e-001 9.307236e-001 2.505717e+000 51 42 26
2.878695e-001 9.264970e-001 2.505358e+000 51 42 26
3.284944e-001 5.023300e-001 2.164207e+000 133 124 109
-6.298538e-001 2.680737e-001 2.342671e+000 107 89 69
-3.255166e-001 1.118817e+000 2.874909e+000 133 118 97
-3.258990e-001 1.118572e+000 2.873993e+000 133 118 97
-3.629425e-001 4.567506e-001 2.376444e+000 55 54 49
-3.441774e-001 4.190071e-001 2.414346e+000 55 54 49
-3.281211e-001 7.298511e-001 2.574198e+000 57 53 50
-2.493919e-001 4.914907e-001 2.379771e+000 138 123 102
-2.155364e-001 6.395996e-001 2.432255e+000 48 47 43
-1.428436e-001 8.796577e-001 2.626716e+000 125 118 100
-1.445049e-001 8.855552e-001 2.621320e+000 125 118 100
-1.917844e-001 4.162667e-001 2.247991e+000 134 119 96
-3.648652e-001 1.638213e+000 3.288289e+000 127 112 91
-3.130251e-001 1.345130e+000 3.018462e+000 45 46 37
-3.866691e-001 4.335932e-001 2.373832e+000 134 119 96
-2.758269e-001 1.039596e+000 2.776011e+000 41 40 36
-2.520419e-001 9.464413e-001 2.711225e+000 127 113 93
-2.223906e-001 1.006229e+000 2.742789e+000 48 47 42
-2.146396e-001 1.066453e+000 2.783797e+000 48 45 40
-1.870960e-001 1.350937e+000 2.976050e+000 48 48 40
-2.135154e-001 1.398104e+000 2.862438e+000 129 114 95
-2.110218e-001 5.884796e-001 2.423138e+000 54 50 47
-1.953535e-001 7.730359e-001 2.540027e+000 52 49 44
2.276339e-001 4.397763e-001 2.160418e+000 55 54 52
3.201121e-001 4.552713e-001 2.119942e+000 60 55 49
3.218711e-001 4.474592e-001 2.127931e+000 60 55 49
-3.641921e-001 1.788281e+000 3.421002e+000 124 108 85
-4.561671e-001 1.805602e+000 3.203096e+000 124 109 85
-4.561671e-001 1.805602e+000 3.203096e+000 124 109 85
-2.243452e-001 1.904531e+000 3.464002e+000 45 38 31
-2.331264e-001 1.918964e+000 3.459263e+000 45 38 31
-3.423891e-001 9.805327e-001 2.777226e+000 126 111 91
-3.025765e-001 9.752310e-001 2.760417e+000 127 110 92
-3.004213e-001 1.019537e+000 2.773534e+000 122 106 88
-3.004213e-001 1.019537e+000 2.773534e+000 122 106 88
-2.878011e-001 1.041459e+000 2.802859e+000 126 113 95
-3.081214e-001 6.498635e-001 2.533907e+000 123 107 91
-2.527558e-001 1.081159e+000 2.815590e+000 127 112 91
-2.296490e-001 1.094564e+000 2.815205e+000 45 41 40
-1.901585e-001 1.278538e+000 2.932286e+000 43 42 33
-2.102968e-001 1.386738e+000 2.871742e+000 133 118 99
2.963249e-001 1.745631e+000 3.001413e+000 132 120 98
3.554342e-001 1.647053e+000 3.010970e+000 57 50 47
2.856022e-001 7.981705e-001 2.410546e+000 138 127 108
2.364774e-001 2.945045e-001 2.064470e+000 158 150 131
2.772407e-001 3.044555e-001 2.047485e+000 157 146 128
3.093978e-001 3.076879e-001 2.038321e+000 162 149 132
3.093978e-001 3.076879e-001 2.038321e+000 162 149 132
3.757411e-001 3.435851e-001 2.017805e+000 118 105 86
-5.711100e-001 6.863838e-001 2.643377e+000 136 124 106
-5.812655e-001 4.413480e-001 2.451790e+000 52 44 33
-5.650153e-001 4.167783e-001 2.456657e+000 120 108 88
-5.512854e-001 5.122525e-001 2.508323e+000 43 42 37
-5.512854e-001 5.122525e-001 2.508323e+000 43 42 37
-5.255261e-001 6.884439e-001 2.630399e+000 54 50 45
-5.255171e-001 6.904474e-001 2.626220e+000 54 50 45
-4.574518e-001 1.987566e+000 3.282670e+000 120 106 80
-4.781019e-001 8.684044e-001 2.737492e+000 55 46 37
-2.247114e-001 1.911157e+000 3.479921e+000 127 114 91
-3.133088e-001 1.318831e+000 3.012604e+000 43 40 35
-3.715807e-001 6.707607e-001 2.553692e+000 47 47 40
-2.984710e-001 1.318939e+000 3.007692e+000 113 102 84
-2.977419e-001 1.320143e+000 3.007605e+000 113 102 84
-3.276996e-001 9.418772e-001 2.742387e+000 50 46 42
-3.276996e-001 9.418772e-001 2.742387e+000 50 46 42
-2.521127e-001 1.585288e+000 3.196330e+000 42 33 25
-2.521127e-001 1.585288e+000 3.196330e+000 42 33 25
-3.453179e-001 7.023058e-001 2.573585e+000 131 119 102
-3.447129e-001 7.444463e-001 2.591228e+000 120 110 92
-3.449336e-001 7.448368e-001 2.592047e+000 120 110 92
-3.503614e-001 6.233421e-001 2.503532e+000 125 114 96
-3.200224e-001 1.043938e+000 2.755871e+000 119 103 86
-3.267752e-001 1.100046e+000 2.758954e+000 129 117 98
-3.422457e-001 5.909681e-001 2.507362e+000 41 41 39
-3.305328e-001 7.006766e-001 2.557439e+000 56 53 48
-3.141897e-001 1.058449e+000 2.740655e+000 119 105 88
-3.141897e-001 1.058449e+000 2.740655e+000 119 105 88
-2.635625e-001 1.221256e+000 2.929716e+000 49 42 37
-3.155141e-001 6.995687e-001 2.545978e+000 127 111 96
-3.155141e-001 6.995687e-001 2.545978e+000 127 111 96
-3.098273e-001 7.465935e-001 2.579009e+000 119 110 93
-3.183049e-001 5.736220e-001 2.448017e+000 56 51 45
-2.956515e-001 4.270189e-001 2.395003e+000 127 116 95
-2.956515e-001 4.270189e-001 2.395003e+000 127 116 95
-2.665351e-001 1.385789e+000 2.824977e+000 115 108 89
-2.087301e-001 1.255736e+000 2.927682e+000 115 108 89
-1.905209e-001 1.332928e+000 2.963437e+000 50 45 41
1.012474e-002 1.076376e+000 2.690114e+000 49 46 37
1.246950e-002 1.076970e+000 2.696478e+000 49 46 37
4.582290e-002 1.098952e+000 2.712394e+000 54 47 39
1.269891e-001 1.641630e+000 3.088586e+000 50 41 34
3.059012e-001 3.262111e-001 2.047819e+000 107 92 73
3.312093e-001 3.306883e-001 2.040189e+000 114 98 82
4.019104e-001 3.387359e-001 2.013392e+000 116 103 84
4.019104e-001 3.387359e-001 2.013392e+000 116 103 84
4.176204e-001 3.247403e-001 1.996330e+000 161 152 133
-5.284696e-001 7.758548e-001 2.723623e+000 124 116 96
-4.591622e-001 1.804868e+000 3.197014e+000 130 114 92
-3.740388e-001 5.728217e-001 2.506521e+000 125 115 100
-3.795702e-001 5.843882e-001 2.495755e+000 125 115 100
-3.536877e-001 1.446759e+000 2.914779e+000 110 100 82
-2.895323e-001 1.257969e+000 2.960300e+000 43 39 35
-2.600964e-001 1.255286e+000 2.957645e+000 47 44 35
-2.545947e-001 1.300716e+000 2.988463e+000 49 45 37
-2.684508e-001 1.189322e+000 2.897244e+000 126 111 95
-2.658225e-001 1.121683e+000 2.866039e+000 127 116 96
-2.783415e-001 1.142937e+000 2.850955e+000 127 116 96
-3.028228e-001 1.490458e+000 2.896988e+000 129 116 99
-3.028228e-001 1.490458e+000 2.896988e+000 129 116 99
-2.350294e-001 1.219715e+000 2.920295e+000 42 38 29
-2.356282e-001 1.216626e+000 2.923573e+000 42 38 29
-2.142778e-001 1.253145e+000 2.939468e+000 45 42 33
-2.555796e-001 8.113179e-001 2.601773e+000 125 113 99
-2.547404e-001 8.113270e-001 2.601711e+000 125 113 99
-1.810368e-001 6.212493e-001 2.439345e+000 51 48 42
-1.810212e-001 6.221104e-001 2.438414e+000 51 48 42
-1.652014e-001 6.295294e-001 2.426048e+000 48 43 37
-1.594562e-001 6.212024e-001 2.432479e+000 48 43 37
1.581117e-001 1.939135e+000 3.315618e+000 125 110 90
2.387242e-001 5.237259e-001 2.206033e+000 137 126 106
2.387242e-001 5.237259e-001 2.206033e+000 137 126 106
3.396723e-001 6.314242e-001 2.265198e+000 141 128 111
3.396723e-001 6.314242e-001 2.265198e+000 141 128 111
3.995463e-001 8.423972e-001 2.409865e+000 141 132 113
3.995463e-001 8.423972e-001 2.409865e+000 141 132 113
4.155847e-001 3.188576e-001 1.978113e+000 98 86 70
-5.578403e-001 4.119916e-001 2.419664e+000 52 43 34
-5.154980e-001 7.221760e-001 2.663872e+000 117 108 93
-5.175881e-001 7.439825e-001 2.676160e+000 125 118 100
-5.083882e-001 4.307999e-001 2.475062e+000 142 130 118
-3.189372e-001 1.273802e+000 2.986306e+000 48 43 31
-3.640469e-001 7.777461e-001 2.623286e+000 44 42 33
-3.448960e-001 1.113005e+000 2.786736e+000 55 47 38
-3.307772e-001 4.370486e-001 2.411996e+000 134 128 113
-2.886274e-001 9.736404e-001 2.696474e+000 42 34 24
-2.886274e-001 9.736404e-001 2.696474e+000 42 34 24
-2.380421e-001 1.077650e+000 2.808522e+000 126 116 99
-2.084421e-001 1.207437e+000 2.893817e+000 42 34 25
-2.066366e-001 1.207449e+000 2.895033e+000 42 34 25
-1.884128e-001 5.090888e-001 2.362864e+000 56 49 41
-1.586459e-001 6.447911e-001 2.454707e+000 128 121 105
5.214186e-002 1.589719e+000 3.088648e+000 129 117 99
2.500781e-001 1.698816e+000 3.001856e+000 55 49 37
3.658060e-001 1.905204e+000 3.218448e+000 49 43 35
2.398489e-001 6.564434e-001 2.323093e+000 131 123 102
2.654109e-001 8.733814e-001 2.467472e+000 63 51 37
2.187850e-001 4.867108e-001 2.195141e+000 134 122 107
2.187850e-001 4.867108e-001 2.195141e+000 134 122 107
2.670316e-001 8.280679e-001 2.434855e+000 131 122 104
2.419475e-001 6.457612e-001 2.308562e+000 53 43 36
3.575363e-001 1.834021e+000 2.984987e+000 131 124 106
3.575363e-001 1.834021e+000 2.984987e+000 131 124 106
2.892617e-001 9.400714e-001 2.511327e+000 133 122 104
2.380737e-001 4.939048e-001 2.183859e+000 127 115 99
2.447011e-001 5.047382e-001 2.196607e+000 145 134 115
2.624463e-001 6.343781e-001 2.288172e+000 143 131 115
2.624773e-001 6.344078e-001 2.288451e+000 143 131 115
2.979691e-001 8.779117e-001 2.466314e+000 131 118 102
2.994772e-001 8.840200e-001 2.465637e+000 131 118 102
3.025956e-001 8.938395e-001 2.472813e+000 130 117 101
3.025956e-001 8.938395e-001 2.472813e+000 130 117 101
3.052381e-001 9.261043e-001 2.495472e+000 133 121 105
3.024668e-001 9.387814e-001 2.501100e+000 147 135 121
3.137300e-001 4.976883e-001 2.164174e+000 140 130 118
3.143620e-001 4.974005e-001 2.164137e+000 140 130 118
3.496762e-001 7.334485e-001 2.331664e+000 144 133 117
3.552618e-001 7.641017e-001 2.355035e+000 147 135 123
3.859304e-001 8.576774e-001 2.414381e+000 62 52 42
3.533049e-001 7.794330e-001 2.284303e+000 140 128 112
3.961061e-001 8.842537e-001 2.430543e+000 141 132 117
4.133734e-001 9.764190e-001 2.487746e+000 67 54 38
-6.332356e-001 1.915762e+000 3.259071e+000 98 92 86
-4.315854e-001 1.701863e+000 3.353362e+000 124 114 103
-5.318775e-001 7.273953e-001 2.654634e+000 47 37 26
-5.089749e-001 7.516304e-001 2.684903e+000 29 20 11
-5.101348e-001 7.527544e-001 2.664268e+000 44 35 27
-5.143341e-001 6.055134e-001 2.562545e+000 139 127 111
-3.328023e-001 9.853383e-001 2.710088e+000 125 114 103
-3.131313e-001 9.436886e-001 2.745177e+000 125 114 103
-3.208158e-001 7.017784e-001 2.567086e+000 52 46 37
-2.338182e-001 1.084450e+000 2.798344e+000 130 120 103
-2.361098e-001 8.931690e-001 2.634758e+000 44 32 20
-2.361098e-001 8.931690e-001 2.634758e+000 44 32 20
-1.761738e-001 7.840500e-001 2.552178e+000 119 112 102
-1.761738e-001 7.840500e-001 2.552178e+000 119 112 102
-1.889388e-001 4.835953e-001 2.380403e+000 58 52 42
-1.797967e-001 6.583432e-001 2.469190e+000 44 37 30
-1.680592e-001 6.571727e-001 2.476947e+000 131 125 113
-1.635477e-001 6.559559e-001 2.467493e+000 47 43 33
-1.557590e-001 6.184871e-001 2.451167e+000 130 124 110
-1.830167e-001 4.785181e-001 2.315833e+000 133 127 115
-1.583062e-001 5.840043e-001 2.408185e+000 139 133 121
-1.232068e-001 8.516954e-001 2.596753e+000 44 40 31
-1.232068e-001 8.516954e-001 2.596753e+000 44 40 31
-1.474205e-001 5.113882e-001 2.383484e+000 126 122 111
-1.474205e-001 5.113882e-001 2.383484e+000 126 122 111
1.466625e-001 1.672492e+000 3.099754e+000 132 120 103
3.599685e-001 1.925904e+000 3.228999e+000 51 45 35
3.203793e-001 1.666446e+000 3.039760e+000 48 43 31
3.723822e-001 1.919008e+000 3.220429e+000 49 40 33
3.303216e-001 2.055983e+000 3.110467e+000 45 39 30
2.683723e-001 8.945159e-001 2.483328e+000 67 55 41
2.595804e-001 7.954506e-001 2.416966e+000 66 54 39
2.647306e-001 8.055200e-001 2.413916e+000 143 131 115
2.647306e-001 8.055200e-001 2.413916e+000 143 131 115
2.456349e-001 8.227042e-001 2.362010e+000 146 135 117
2.621312e-001 8.687871e-001 2.385417e+000 147 133 120
2.509822e-001 6.999400e-001 2.295870e+000 61 51 39
2.715040e-001 8.170032e-001 2.354838e+000 52 44 30
2.765074e-001 8.668577e-001 2.383346e+000 141 131 114
2.938131e-001 8.249612e-001 2.420554e+000 141 131 114
2.746615e-001 8.863997e-001 2.385581e+000 140 128 112
2.697602e-001 6.255179e-001 2.281439e+000 58 46 30
3.154155e-001 9.347676e-001 2.499840e+000 54 41 25
3.585264e-001 8.564305e-001 2.418800e+000 66 54 39
3.455843e-001 7.571872e-001 2.352253e+000 50 38 23
3.766695e-001 9.733788e-001 2.500774e+000 62 49 33
3.582169e-001 7.894677e-001 2.383086e+000 145 135 119
3.713210e-001 8.569160e-001 2.419778e+000 57 47 37
3.713210e-001 8.569160e-001 2.419778e+000 57 47 37
3.742390e-001 8.730573e-001 2.432049e+000 59 47 35
3.317351e-001 5.300688e-001 2.182342e+000 133 124 109
3.786048e-001 8.512096e-001 2.412396e+000 144 137 120
3.786048e-001 8.512096e-001 2.412396e+000 144 137 120
3.657829e-001 9.713444e-001 2.392547e+000 144 134 122
3.664574e-001 9.302891e-001 2.374115e+000 63 53 40
3.547563e-001 7.787568e-001 2.287177e+000 139 127 112
3.863678e-001 8.064866e-001 2.374077e+000 134 125 110
3.475469e-001 6.330758e-001 2.205553e+000 50 41 26
3.444881e-001 5.253009e-001 2.160115e+000 150 139 123
3.810627e-001 7.605660e-001 2.340823e+000 54 42 29
4.037035e-001 9.216714e-001 2.456404e+000 147 137 122
4.037035e-001 9.216714e-001 2.456404e+000 147 137 122
4.146227e-001 9.406609e-001 2.475762e+000 54 42 26
4.110467e-001 9.285811e-001 2.453244e+000 53 41 27
-5.379367e-001 7.820052e-001 2.698542e+000 128 123 111
-5.121414e-001 7.743083e-001 2.704778e+000 132 127 113
-4.964275e-001 8.323044e-001 2.699759e+000 139 130 115
-4.964275e-001 8.323044e-001 2.699759e+000 139 130 115
-3.611214e-001 8.940641e-001 2.714920e+000 125 112 98
-3.539188e-001 6.664147e-001 2.562683e+000 121 121 110
-3.246188e-001 8.610153e-001 2.684587e+000 129 120 105
-3.419462e-001 6.550081e-001 2.546575e+000 131 120 99
-3.499376e-001 6.115385e-001 2.498383e+000 47 43 37
-3.235106e-001 6.505981e-001 2.530558e+000 47 40 30
-2.548021e-001 1.710703e+000 3.059228e+000 125 113 96
-2.960166e-001 4.832639e-001 2.386243e+000 116 108 94
-2.220399e-001 9.169032e-001 2.680885e+000 51 43 31
-1.772952e-001 7.765992e-001 2.536221e+000 125 121 112
-1.917985e-001 4.444829e-001 2.361300e+000 42 33 21
-1.917985e-001 4.444829e-001 2.361300e+000 42 33 21
-1.524787e-001 8.789368e-001 2.627411e+000 130 123 112
-1.670668e-001 7.499094e-001 2.525336e+000 110 105 93
-1.804412e-001 4.466335e-001 2.355411e+000 44 36 21
-1.609366e-001 4.816860e-001 2.362966e+000 141 137 127
-1.399552e-001 7.793180e-001 2.521914e+000 126 120 110
-1.302371e-001 7.849122e-001 2.548535e+000 36 29 19
-1.462079e-001 5.555417e-001 2.409898e+000 150 144 130
-1.462079e-001 5.555417e-001 2.409898e+000 150 144 130
1.681330e-001 1.638212e+000 3.075998e+000 130 121 105
2.382352e-001 8.699279e-001 2.400659e+000 44 34 21
2.165342e-001 5.239874e-001 2.222092e+000 55 43 29
2.250572e-001 6.275469e-001 2.273306e+000 147 138 121
2.295433e-001 6.943793e-001 2.304439e+000 47 38 21
2.199810e-001 5.195715e-001 2.217161e+000 143 134 117
2.814276e-001 9.492396e-001 2.518333e+000 57 44 30
2.803746e-001 9.479432e-001 2.519569e+000 57 44 30
2.319536e-001 6.383625e-001 2.274158e+000 141 131 119
2.319536e-001 6.383625e-001 2.274158e+000 141 131 119
2.509660e-001 7.318100e-001 2.316376e+000 145 133 119
2.648727e-001 6.915689e-001 2.345748e+000 145 133 119
2.429852e-001 6.091687e-001 2.248279e+000 139 130 113
2.808980e-001 8.409176e-001 2.439048e+000 135 123 107
2.434820e-001 5.411142e-001 2.223207e+000 47 35 19
2.824432e-001 8.344162e-001 2.436154e+000 128 116 103
2.824432e-001 8.344162e-001 2.436154e+000 128 116 103
2.608115e-001 8.120776e-001 2.353994e+000 144 135 118
3.132963e-001 5.453111e-001 2.200892e+000 63 52 36
3.183277e-001 5.698772e-001 2.190030e+000 150 141 124
3.183277e-001 5.698772e-001 2.190030e+000 150 141 124
3.136314e-001 5.409546e-001 2.155711e+000 135 126 113
3.879365e-001 9.375284e-001 2.487481e+000 62 50 34
3.334995e-001 7.204276e-001 2.265266e+000 60 47 31
3.334995e-001 7.204276e-001 2.265266e+000 60 47 31
3.666486e-001 9.538904e-001 2.388857e+000 145 137 124
3.949154e-001 9.038991e-001 2.439699e+000 56 46 34
3.778496e-001 1.060432e+000 2.428827e+000 125 112 95
-4.224772e-001 9.190697e-001 2.755050e+000 129 113 90
-4.276848e-001 6.636984e-001 2.572986e+000 130 114 91
3.742763e-001 8.055079e-001 2.382557e+000 76 67 53
2.366873e-001 4.915548e-001 2.206601e+000 120 107 90
-3.297573e-001 1.738635e+000 3.349927e+000 109 96 73
-6.019952e-001 4.527180e-001 2.490391e+000 126 111 92
-5.935395e-001 1.260911e+000 3.056632e+000 41 24 15
1.851520e-001 1.618970e+000 3.068011e+000 41 35 30
-3.250448e-001 5.174648e-001 2.427573e+000 130 114 88
-3.183567e-001 7.693169e-001 2.611413e+000 51 46 40
-3.405547e-001 1.292562e+000 2.990431e+000 120 104 80
-3.026394e-001 4.894189e-001 2.398428e+000 129 114 95
-4.034350e-001 1.616852e+000 3.264513e+000 113 98 76
1.117932e-001 1.627689e+000 3.091024e+000 49 40 31
-2.882984e-001 1.062050e+000 2.815337e+000 42 38 29
-3.012105e-001 1.167440e+000 2.899957e+000 114 99 76
-3.012105e-001 1.167440e+000 2.899957e+000 114 99 76
-3.851831e-001 5.680798e-001 2.475464e+000 126 114 91
-4.009308e-001 5.033282e-001 2.431013e+000 53 44 39
4.818579e-001 1.934069e+000 3.195272e+000 48 38 29
3.282023e-001 1.920522e+000 3.248844e+000 110 99 82
-2.329374e-001 3.946104e-001 2.288880e+000 143 130 112
-2.788448e-001 1.025841e+000 2.765652e+000 39 35 26
-3.825186e-001 7.064368e-001 2.579604e+000 120 107 84
-8.450878e-002 1.139046e+000 2.788413e+000 42 31 20
-8.450878e-002 1.139046e+000 2.788413e+000 42 31 20
3.935070e-001 2.948472e-001 2.008749e+000 80 67 50
4.073197e-001 9.442540e-001 2.468724e+000 36 23 7
4.045562e-001 9.356508e-001 2.464480e+000 129 116 100
4.045562e-001 9.356508e-001 2.464480e+000 129 116 100
3.751069e-001 7.505090e-001 2.338383e+000 128 116 100
3.407968e-001 6.780497e-001 2.299258e+000 128 115 98
3.654817e-001 8.651884e-001 2.428272e+000 129 117 100
-2.686789e-001 8.729047e-001 2.658307e+000 116 109 96
-2.686789e-001 8.729047e-001 2.658307e+000 116 109 96
-2.913224e-001 8.424762e-001 2.640518e+000 118 111 95
-2.861479e-001 8.367462e-001 2.644779e+000 118 111 95
-2.811372e-001 1.238569e+000 2.939403e+000 119 108 90
-4.919799e-001 8.126738e-001 2.703798e+000 34 26 10
3.616042e-001 7.303711e-001 2.327705e+000 56 44 29
3.616042e-001 7.303711e-001 2.327705e+000 56 44 29
3.642624e-001 7.894428e-001 2.372310e+000 128 116 102
1.326250e-001 1.666166e+000 3.119766e+000 125 111 93
-1.370081e-001 8.795556e-001 2.610139e+000 41 33 22
-1.370081e-001 8.795556e-001 2.610139e+000 41 33 22
-2.867687e-001 5.329938e-001 2.406984e+000 121 110 100
-5.049090e-001 7.334646e-001 2.646442e+000 125 116 107
-5.324330e-001 7.515495e-001 2.671805e+000 36 30 18
-5.324330e-001 7.515495e-001 2.671805e+000 36 30 18
2.993741e-001 2.685605e+000 3.124875e+000 161 175 188
-3.372252e-001 1.697619e+000 3.326545e+000 119 108 87
-6.181310e-001 8.552965e-001 2.795280e+000 27 14 9
-9.419687e-001 7.005588e-001 2.282799e+000 121 114 96
6.484454e-002 2.677629e+000 3.189358e+000 150 162 176
1.268655e-001 2.682678e+000 3.169801e+000 148 163 174
-6.217937e-001 4.081139e-001 2.457745e+000 138 127 109
-9.359016e-001 5.835079e-001 2.207343e+000 137 131 118
-8.449921e-001 2.402067e+000 3.347838e+000 109 102 85
-4.118436e-001 1.585858e+000 3.266127e+000 47 41 38
-9.128408e-002 9.466591e-001 2.655810e+000 53 52 49
-9.128408e-002 9.466591e-001 2.655810e+000 53 52 49
-6.081859e-001 7.197302e-001 2.678743e+000 136 125 106
-5.433401e-001 5.982745e-001 2.563379e+000 55 52 45
-5.870475e-001 4.017536e-001 2.428355e+000 65 61 55
-8.009567e-001 1.983758e+000 3.072537e+000 142 156 167
-1.947072e-001 1.260261e+000 2.925743e+000 45 42 37
-9.044709e-001 1.026949e+000 2.483728e+000 121 118 103
-2.935879e-001 7.071228e-001 2.547307e+000 56 57 51
6.499499e-001 2.682307e+000 2.990432e+000 181 197 212
6.499499e-001 2.682307e+000 2.990432e+000 181 197 212
-3.348487e-001 1.721214e+000 3.345072e+000 128 115 94
-3.878147e-001 1.587152e+000 3.255248e+000 50 41 38
7.477665e-003 1.333930e+000 2.903436e+000 54 45 36
-8.998526e-001 1.088010e+000 2.521593e+000 123 118 103
1.772062e+000 2.790630e+000 2.642875e+000 147 141 129
3.872163e-001 1.866779e+000 3.179087e+000 47 38 29
-3.442920e-001 1.765974e+000 3.389871e+000 31 21 11
-3.442920e-001 1.765974e+000 3.389871e+000 31 21 11
3.995548e-001 1.746604e+000 3.071476e+000 128 116 103
3.995548e-001 1.746604e+000 3.071476e+000 128 116 103
-5.652156e-001 1.571760e+000 3.305049e+000 146 136 122
-3.145782e-001 1.283834e+000 2.989952e+000 125 119 101
-3.145782e-001 1.283834e+000 2.989952e+000 125 119 101
-1.227185e-001 8.709120e-001 2.610387e+000 54 46 43
4.055638e-001 1.765456e+000 3.086099e+000 131 119 103
-8.029912e-001 2.026544e+000 3.102485e+000 151 165 176
3.105226e-001 1.652719e+000 3.031691e+000 36 29 21
4.102320e-001 9.282088e-001 2.448995e+000 71 58 42
2.857491e-001 7.793702e-001 2.384662e+000 55 43 29
2.603845e-001 7.652850e-001 2.386463e+000 151 139 124
2.538503e-001 7.576798e-001 2.382591e+000 60 48 31
2.461288e-001 6.955308e-001 2.339432e+000 141 129 115
-1.811248e-001 6.378129e-001 2.458912e+000 46 39 29
3.650361e-001 6.576759e-001 2.263464e+000 71 62 47
-1.825863e-001 5.832457e-001 2.419171e+000 123 117 103
-3.402145e-001 5.712223e-001 2.467449e+000 138 130 116
4.414966e-001 1.850156e+000 3.147277e+000 125 113 99
-1.528928e-001 8.788152e-001 2.626212e+000 137 131 119
3.810113e-001 8.809632e-001 2.423551e+000 145 133 119
-1.590321e-001 7.908304e-001 2.558056e+000 131 122 112
2.594774e-001 7.957198e-001 2.410062e+000 55 43 28
3.443125e-001 6.162581e-001 2.241491e+000 59 47 35
-1.715301e-001 5.707851e-001 2.403484e+000 134 131 116
3.267219e-001 5.489202e-001 2.196698e+000 72 62 51
-2.798827e-001 1.026401e+000 2.776149e+000 45 42 35
-1.492749e-001 8.976904e-001 2.612083e+000 125 118 100
-3.148276e-001 4.743426e-001 2.341949e+000 128 116 93
-3.148276e-001 4.743426e-001 2.341949e+000 128 116 93
-2.350351e-001 5.040958e-001 2.333766e+000 50 49 44
-1.129043e-001 6.755431e-001 2.417696e+000 138 123 103
-3.733705e-001 1.565151e+000 3.248892e+000 121 104 84
-3.806674e-001 1.579945e+000 3.237354e+000 121 104 84
-3.835652e-001 7.233248e-001 2.593996e+000 49 48 43
-3.667987e-001 7.001702e-001 2.567070e+000 45 45 41
-2.831012e-001 1.338286e+000 3.018129e+000 48 48 43
-3.626647e-001 4.870066e-001 2.395905e+000 49 48 43
-3.626647e-001 4.870066e-001 2.395905e+000 49 48 43
-2.852464e-001 1.105291e+000 2.839692e+000 127 111 90
-2.852464e-001 1.105291e+000 2.839692e+000 127 111 90
-2.179838e-001 1.119283e+000 2.809056e+000 127 112 93
-5.484542e-001 5.533317e-001 2.578061e+000 137 124 100
-5.352639e-001 6.597934e-001 2.635600e+000 128 117 98
-3.731520e-001 1.800953e+000 3.405348e+000 120 106 80
-2.921275e-001 1.577335e+000 3.184033e+000 129 115 95
3.692917e-001 6.981675e-001 2.333703e+000 137 125 109
7.898521e-001 -1.996813e-001 2.526162e+000 203 219 233
-5.791999e-001 3.626323e-001 2.416347e+000 131 116 95
-3.622350e-001 1.892200e+000 3.468262e+000 42 32 26
-3.499540e-001 7.894750e-001 2.627050e+000 134 119 99
-3.102900e-001 1.131302e+000 2.862637e+000 52 45 37
9.860746e-001 2.905870e-002 2.909652e+000 191 204 214
3.595232e-001 7.625023e-001 2.381871e+000 135 126 109
9.144543e-001 -6.001484e-002 2.670777e+000 194 210 223
1.020642e+000 9.524196e-002 2.859767e+000 138 155 165
-5.316350e-001 7.358682e-001 2.689137e+000 124 116 103
-3.376658e-001 9.421876e-001 2.729173e+000 135 129 110
-2.074228e-001 4.991686e-001 2.315935e+000 129 122 106
-1.739727e-001 5.598348e-001 2.374720e+000 127 121 107
2.729371e-001 9.316504e-001 2.505784e+000 151 139 125
2.602847e-001 7.926088e-001 2.416501e+000 66 54 39
1.063658e+000 5.114203e-002 2.925688e+000 44 58 70
-5.315813e-001 8.026774e-001 2.762903e+000 39 26 13
-2.663632e-001 1.170875e+000 2.870522e+000 119 109 99
-2.689209e-001 9.848367e-001 2.752328e+000 137 126 113
-1.723722e-001 7.950502e-001 2.554976e+000 123 117 105
-1.376668e-001 8.431852e-001 2.559353e+000 126 121 109
3.787784e-001 7.538467e-001 2.373916e+000 60 50 38
4.128589e-001 8.536514e-001 2.433827e+000 68 56 40
4.128589e-001 8.536514e-001 2.433827e+000 68 56 40
7.910413e-001 1.320931e-001 2.891756e+000 190 204 217
7.910413e-001 1.320931e-001 2.891756e+000 190 204 217
8.266693e-001 1.389636e-001 2.905032e+000 79 92 108
7.941147e-001 -1.709452e-001 2.572741e+000 203 221 233
9.781288e-001 -2.334286e-002 2.883042e+000 51 64 76
-1.684029e-001 6.157243e-001 2.417598e+000 79 72 59
-5.131302e-001 6.635725e-001 2.614961e+000 54 48 34
3.994341e-001 9.037329e-001 2.462166e+000 123 111 95
-4.994031e-001 8.314737e-001 2.744377e+000 91 82 71
3.832506e-001 7.953323e-001 2.388958e+000 76 67 53
-2.196938e-001 8.512280e-001 2.616639e+000 128 112 90
-5.901002e-001 8.509701e-001 2.810594e+000 49 31 19
3.621599e-001 4.161963e-001 2.167592e+000 51 50 42
-9.869996e-002 9.583615e-001 2.650405e+000 40 41 31
-2.939533e-001 6.893869e-001 2.526380e+000 48 45 38
-3.351274e-001 5.239357e-001 2.418395e+000 130 114 88
-3.119584e-001 8.231327e-001 2.645231e+000 39 36 31
-5.867849e-001 1.187531e+000 3.095206e+000 140 133 114
1.243310e+000 3.701862e-001 2.385873e+000 60 76 89
8.318975e-001 3.303490e-001 2.238091e+000 133 62 72
-1.468606e-001 7.730917e-001 2.563356e+000 66 59 44
-2.923121e-001 1.105904e+000 2.862076e+000 46 42 34
-3.008677e-001 1.156846e+000 2.900978e+000 119 103 78
-3.008677e-001 1.156846e+000 2.900978e+000 119 103 78
-5.299193e-001 7.291056e-001 2.680819e+000 55 42 34
-3.137032e-001 4.620733e-001 2.351208e+000 116 105 88
-2.426619e-001 1.018033e+000 2.759410e+000 127 110 93
-2.426619e-001 1.018033e+000 2.759410e+000 127 110 93
-5.951966e-001 4.046378e-001 2.375363e+000 131 118 98
-5.353330e-001 6.098544e-001 2.584460e+000 127 113 93
-5.353330e-001 6.098544e-001 2.584460e+000 127 113 93
-5.696047e-001 4.396676e-001 2.466317e+000 41 32 22
-5.397906e-001 8.231787e-001 2.727105e+000 42 37 30
2.472674e-001 9.118249e-001 2.450386e+000 129 116 99
-1.494278e-001 4.781334e-001 2.339862e+000 92 84 71
-2.098014e-001 8.731623e-001 2.672773e+000 121 108 89
-2.356221e-001 8.738721e-001 2.644774e+000 49 42 33
-3.139427e-001 7.132632e-001 2.555682e+000 122 114 93
-2.611860e-001 9.614165e-001 2.761529e+000 45 38 28
-2.384498e-001 1.161566e+000 2.916931e+000 119 104 84
-3.408345e-001 7.568295e-001 2.602500e+000 122 110 96
-3.361089e-001 8.653604e-001 2.686435e+000 46 38 35
-3.221559e-001 8.547030e-001 2.697839e+000 46 38 35
-3.163981e-001 1.003883e+000 2.789033e+000 46 40 28
-3.200318e-001 9.733910e-001 2.766247e+000 39 32 24
-4.740485e-001 8.055868e-001 2.707063e+000 48 40 27
3.693287e-001 1.001807e+000 2.462408e+000 59 43 28
3.510242e-001 8.966808e-001 2.421996e+000 132 120 104
2.961675e-001 1.942110e+000 3.252608e+000 41 34 22
-1.538851e-001 5.028596e-001 2.359429e+000 44 37 27
-2.403714e-001 9.548324e-001 2.712509e+000 128 117 98
-2.874580e-001 1.122729e+000 2.873039e+000 112 104 89
-3.513794e-001 1.538759e+000 3.267056e+000 102 93 75
1.005740e+000 4.384345e-001 2.389150e+000 159 173 184
3.824694e-001 8.000188e-001 2.378744e+000 129 117 102
3.592088e-001 5.944353e-001 2.275256e+000 134 123 105
2.521855e-001 7.899840e-001 2.394134e+000 134 121 105
1.108230e-001 1.624325e+000 3.083693e+000 31 24 11
-5.115143e-001 7.251391e-001 2.663635e+000 123 113 98
3.782084e-001 5.930866e-001 2.245226e+000 61 50 32
3.782084e-001 5.930866e-001 2.245226e+000 61 50 32
2.577891e-001 8.638515e-001 2.420538e+000 132 119 102
-1.166517e-001 8.584874e-001 2.613580e+000 111 107 96
-3.096191e-001 3.989428e-001 2.308462e+000 49 36 24
-2.014096e-001 1.077305e+000 2.794862e+000 120 105 88
-3.273649e-001 5.226350e-001 2.426272e+000 137 126 105
-2.528214e-001 8.962672e-001 2.672831e+000 130 118 104
3.946927e-001 8.252555e-001 2.392887e+000 147 135 121
-5.178888e-001 7.176974e-001 2.666797e+000 133 125 106
-5.013522e-001 7.471501e-001 2.686007e+000 144 138 122
3.844983e-001 7.665313e-001 2.366156e+000 144 135 117
-1.920918e-001 6.062105e-001 2.421856e+000 34 28 16
2.814315e-001 9.127453e-001 2.522705e+000 147 134 118
2.748713e-001 9.451081e-001 2.509599e+000 147 134 118
-4.868407e-001 8.473040e-001 2.760562e+000 141 132 120
-1.397606e-001 8.991135e-001 2.605311e+000 132 124 112
-1.397606e-001 8.991135e-001 2.605311e+000 132 124 112
-3.508202e-001 7.675489e-001 2.685000e+000 62 53 43
3.995240e-001 8.308315e-001 2.409526e+000 130 118 104
9.442845e-001 6.636689e-002 2.921576e+000 51 63 75
9.950167e-001 -1.284790e-002 2.876392e+000 47 57 71
3.454503e-001 6.631923e-001 2.312089e+000 65 52 36
3.431656e-001 6.581093e-001 2.309303e+000 65 52 36
-1.259236e-001 1.292041e+000 2.918243e+000 140 127 110
-1.718364e-001 9.535066e-001 2.681171e+000 60 58 54
2.784388e-002 1.571414e+000 3.016303e+000 63 59 51
-2.400570e-001 1.307174e+000 2.970684e+000 57 57 50
3.123984e-003 1.121963e+000 2.731260e+000 50 41 36
-4.019399e-001 1.651707e+000 3.307865e+000 48 38 32
-5.558344e-001 7.107933e-001 2.662721e+000 148 143 131
1.134465e-001 1.639635e+000 3.101526e+000 154 146 136
1.675682e-001 1.636593e+000 3.087845e+000 147 142 131
-5.183649e-001 8.585626e-001 2.766401e+000 139 140 128
-2.549956e-001 1.196446e+000 2.908881e+000 139 127 110
-5.513126e-001 6.450359e-001 2.634390e+000 57 55 56
-2.549415e-001 9.820685e-001 2.742827e+000 142 129 112
-2.311996e-001 9.085360e-001 2.668447e+000 53 54 47
-3.417749e-001 1.131183e+000 2.905932e+000 144 132 116
-9.341693e-002 1.164583e+000 2.804154e+000 67 60 52
-3.113135e-001 1.099483e+000 2.866340e+000 146 134 119
3.648937e-001 6.521782e-001 2.302311e+000 144 136 123
3.648937e-001 6.521782e-001 2.302311e+000 144 136 123
-1.763779e-001 7.618830e-001 2.524183e+000 127 119 111
-4.890179e-001 8.156552e-001 2.735542e+000 122 116 104
2.780117e-001 9.456399e-001 2.521950e+000 72 60 43
2.863676e-001 9.430053e-001 2.518922e+000 153 141 125
2.932580e-001 8.706580e-001 2.463647e+000 88 79 62
-1.216190e+000 1.798924e+000 -1.512447e+000 0 255 0
-1.229414e+000 1.813967e+000 -1.558261e+000 255 255 0
-1.033500e+000 -2.324056e-001 -9.239007e-001 255 0 0
-1.044398e+000 -2.425356e-001 -9.716356e-001 255 255 0
2.992583e+000 -5.560195e+000 8.461330e+000 0 255 0
2.978932e+000 -5.523583e+000 8.430133e+000 255 255 0
3.146180e+000 -1.985440e+000 5.155804e+000 255 0 0
3.118015e+000 -1.956642e+000 5.126183e+000 255 255 0
4.266316e+002 -1.020900e+003 8.038731e+002 0 255 0
4.266160e+002 -1.020863e+003 8.038438e+002 255 255 0
2.397920e+000 9.350216e-001 1.033497e+001 255 0 0
2.382587e+000 9.410790e-001 1.028776e+001 255 255 0
1.319063e+002 -1.504325e+002 9.739364e+001 0 255 0
1.318766e+002 -1.503984e+002 9.737237e+001 255 255 0
-1.259583e+002 -1.916981e+002 3.093676e+002 255 0 0
-1.259418e+002 -1.916730e+002 3.093276e+002 255 255 0
